# .PCD v0.7 - Point Cloud Data file format
VERSION 0.7
FIELDS x y z
SIZE 4 4 4
TYPE F F F
COUNT 1 1 1
WIDTH 1307
HEIGHT 1
VIEWPOINT 0 0 0 1 0 0 0
POINTS 1307
DATA ascii
27.78437996 -3.424322605 40.09869385
28.24278259 3.833102703 30.04624939
27.18915367 3.184308052 28.24919319
28.81768036 3.919100761 37.57366562
26.28568459 2.095172405 26.59580421
27.56731415 3.235905409 41.56279373
26.08444595 1.433030725 33.08535385
26.6908493 2.621771336 29.55210495
25.86679649 0.9539446235 28.03073502
27.8371048 3.607264757 29.77279663
26.32201004 1.945237041 33.52600479
25.94626427 0.4853394628 37.53812408
25.98568916 0.3306888044 41.33826447
26.3783226 1.47326088 45.80407715
26.01761818 1.431416392 29.73072624
25.90666771 -0.1568658501 38.16371155
28.1926651 3.828518391 28.82900238
25.95794296 0.8012242317 37.38088608
25.85926628 0.6386131048 32.31223679
27.55617332 3.220701218 40.5393486
25.81116676 -0.7909142971 28.04916
27.19455719 3.01908946 36.45984268
26.07283783 1.440764546 32.75990295
26.75776291 2.469285965 37.76012802
25.89593506 1.112828493 25.77172661
25.96172523 0.9509652257 34.05141449
26.00619125 -0.4785760939 42.47605133
26.18786621 -1.776674867 30.49837494
26.40972328 -1.941069245 39.11360168
26.4573555 -2.109111071 35.22065353
26.09884071 -0.9579503536 43.38178635
25.90433502 -0.9483518004 31.26476288
26.07495689 -1.115289927 39.54359055
26.51368713 -2.457985163 27.39112282
26.08347511 -1.28563273 35.72555161
26.24563789 -1.447761178 44.07141113
26.90539742 -2.818511724 31.89949036
26.05741692 0.9468684793 40.48752975
25.79541969 -0.3205309212 28.605896
26.02990341 -0.6485567093 44.47500229
26.50807571 -2.119633436 40.26890945
25.97055626 -0.9594333172 34.93427658
26.11680984 -1.122027636 41.31564713
25.71139336 0.1592716128 25.97306824
26.7124958 -2.627920151 30.28271484
28.65731812 -3.899204016 36.03022766
27.44100952 3.386113882 28.22137451
27.03079796 2.839595556 37.02733231
26.54086876 2.448258162 29.84365463
28.11610985 3.630157471 38.2525444
26.26319122 1.933913827 31.21369362
26.38822174 1.624949098 46.67808533
26.2354393 1.460907221 42.78878021
25.99136925 0.6500899792 40.1754837
26.0284214 0.4797063172 43.36169434
25.83224678 0.3137225807 31.31534767
26.90673256 2.645060539 39.99703217
26.87583923 2.475677967 44.61125565
26.53359222 2.449012041 28.18632889
26.52614212 2.28072238 34.0838623
25.98987198 -0.4733874798 41.43851852
25.92163467 -0.6451958418 37.00612259
26.06337357 -0.7873458862 44.63716888
25.77586937 0.3184205592 28.60423279
25.88170815 0.1534060836 36.83475494
26.04778481 -1.280716538 33.17417908
26.0141964 0.9565918446 37.95806122
26.2952137 1.937863111 30.95817947
25.88127136 0.3102369905 35.65821838
25.9861145 0.157831341 43.92160034
25.96404648 -1.126229882 31.98664093
26.90531921 -2.639655113 40.55943298
25.95295143 1.276330829 28.4940834
25.88289452 -0.1609405726 36.92526245
27.42248917 -3.031974316 45.35745621
26.6084671 -2.292198181 38.39902878
26.54419899 -2.450233459 29.23948479
25.9197731 -0.1580910981 38.66108322
26.03636742 -1.599760413 26.68008804
25.81622505 -0.4770197272 31.07934952
27.60798836 -3.401135206 34.3784523
25.96112633 -0.7977792621 37.39553452
26.75889587 -2.468499184 40.21857452
26.11332512 -1.289265037 38.03907394
27.03956985 -3.01035428 30.26266098
26.1091671 -1.756150365 26.51437759
26.56170845 -2.124904871 41.9731369
27.57483482 -3.227170229 41.51665878
27.4107151 3.380448341 26.95554352
26.95944214 2.819164753 35.10193253
26.5537796 2.46030426 28.61624908
26.25263023 1.933783054 29.3680191
27.44619942 3.036046267 46.37261963
26.13856888 1.287775993 37.73783875
26.51891518 2.277696133 34.32593155
28.16148758 3.646203518 38.11418152
27.85452652 3.434684992 41.53411484
25.87930107 0.1520133466 35.83752441
26.16644669 1.121032357 44.62708664
28.98505211 4.120005131 27.92565918
26.54682732 2.106325865 41.9865303
26.35732841 2.093155146 29.63631058
27.67858696 3.226222038 46.7730751
27.36637306 3.030756712 41.95941544
27.01791382 3.001387358 29.26166916
26.06352234 -1.11833334 37.74229813
26.24492073 -1.290787697 46.08582306
25.95387459 1.106593251 30.41983986
25.91435432 -0.3188750744 38.84453201
26.48257637 -1.785687327 47.45021439
26.29467392 -1.768768072 35.17408752
26.50378418 -1.952112436 43.83847427
26.2768898 1.938834548 31.70276451
26.33297539 1.774049878 40.08150864
25.78653336 0.4745613039 28.16877747
25.91131401 0.3144344091 36.39663696
26.17689323 -1.132584691 44.88238525
26.62973213 -2.462949514 32.76729584
25.97760582 1.26675272 29.22930336
26.35981178 -1.618323207 45.58726501
26.36912918 -1.78794229 41.05836868
25.82802773 0.7952589393 28.64513397
26.01203728 0.4663626254 43.85509491
25.85472107 -0.7962186933 30.68387985
25.90562057 0.3085002303 37.50154114
26.88541985 -2.483796358 44.4440155
28.91521454 -4.104343414 28.01598358
26.15368652 -1.434165955 37.65792465
25.98565102 -0.3196277618 41.94311523
26.06381226 -0.4834970236 46.41837692
26.46265793 -2.111377716 35.71704102
26.70418549 -2.468487263 36.35644531
26.00349426 -1.434015155 29.85079956
26.48951721 -1.961843491 42.69458771
28.86922073 4.097250462 27.11623383
27.39755058 3.212516546 34.4539032
27.12562561 2.675142288 45.81374359
26.63487434 2.30424881 39.78913879
27.67165375 3.240368843 45.14930725
27.2775383 3.024448395 39.66928864
26.79162407 2.642145395 32.38692093
25.92718887 1.115084648 28.94689941
25.86121941 0.7999898195 30.8697834
26.32769203 1.941708803 33.80323792
25.9276104 0.4771023989 37.83758926
26.77452278 2.476772785 38.80196762
26.00494957 -0.3097108305 43.55405807
25.94013596 0.7950736284 36.4209671
26.52650452 1.957522511 44.01942825
27.50634766 3.213644981 39.35033417
26.25877571 1.444642186 43.95833588
26.05316162 1.431924582 31.76901245
25.75784111 0.001989321085 28.20062637
26.1450367 -1.440549731 36.56386948
26.7340641 2.305341721 45.20050049
26.55555153 2.111985445 41.25486374
26.30758476 2.102191925 28.95325661
26.086689 -0.7874661088 45.60035324
25.87260056 0.4713893533 33.32854462
25.77743721 0.3124115765 29.54707336
27.13898087 -2.676430225 46.06694794
26.01991844 -1.435059905 29.61413574
26.01340866 0.9586440325 37.61364746
26.44748878 -1.774448991 45.71474075
26.22404861 -1.774611115 33.40661621
26.45619965 -1.956273079 41.16043854
26.22969437 -1.933118939 28.88622284
28.04526138 -3.628482342 35.99513245
26.0888958 -0.9636104107 42.23619843
25.77212143 0.3177152276 28.77608109
25.82826042 0.1560609043 33.19598389
26.87254715 -2.64763999 37.26269913
27.53662872 -3.039754629 46.0500145
25.81306648 -0.329564631 29.38928413
25.85717392 -0.4791264832 32.54989624
26.36370468 -1.948614359 35.17469788
25.95993423 -0.7961786985 37.6088829
26.85104942 -2.648164272 35.778759
26.48236465 -1.796852946 47.948349
26.85544777 -2.485427141 44.17802429
26.96418762 -2.820808172 36.26533127
27.9281311 -3.444440365 43.05138397
28.80350876 3.732901096 49.19600677
27.4782753 3.047683716 47.34331894
26.86366653 2.651518106 37.9197998
26.54241371 1.968987584 45.08859253
26.35385323 1.793873072 39.2277298
26.07427406 1.443044901 31.55116463
26.98063469 2.501332283 49.01111603
26.7093792 2.309963226 44.31569672
26.62451172 2.136965036 44.95099258
25.99766159 0.1629558951 43.66762543
27.10717583 2.661514282 48.23009109
26.74264145 2.622904062 31.66415405
26.0437603 -0.4790869951 46.84041977
26.39315987 2.116259575 33.05792236
26.096138 0.4910072684 48.63548279
26.34025002 1.618544579 44.71838379
25.95889091 0.1568363756 40.96974182
26.01121902 1.436678648 28.67438698
26.88877106 2.47337389 45.33837128
26.06648827 0.959446013 41.45575714
25.95178604 0.7972431779 37.64365768
26.07566833 -0.639315784 46.3357811
26.36346436 -2.111956596 30.42003059
26.60579872 -2.290483475 38.82439804
26.33330345 1.451935887 47.35629272
25.86049461 0.1569168568 35.35613251
25.79302025 -0.01064710133 31.55916405
25.94356918 -0.1554310173 39.79035568
26.40744209 -1.621035695 48.37874603
25.87658691 -0.3169353306 35.99340057
26.18380356 -1.764210343 31.58766937
26.07904243 0.4764012098 47.2648468
26.41632271 -2.108388662 34.12232971
26.03838539 -0.9584394693 40.42298508
26.84694099 -2.639543772 36.68004608
26.05009842 -0.3255411685 45.35569763
25.87577438 -0.475197196 33.29595947
28.25141144 -3.670974493 40.04077148
26.64296341 -2.292182207 41.77531815
26.81923294 -2.482205153 42.45444107
26.13937187 -1.293509841 38.99825287
26.98168182 -2.8265903 35.17559052
27.05680275 -3.011849642 31.14430809
26.56695175 -1.963495016 47.4400177
26.55547714 -2.118840694 40.94740295
26.42192078 -2.280905962 29.24917603
27.17767715 -2.846112728 44.33642578
27.29660988 -3.192869186 31.59662628
27.35726357 3.199432373 33.93598175
27.07353592 2.672247171 46.63628387
29.13263512 3.957634449 41.28745651
26.5312233 1.797030807 45.830616
26.15263748 1.444936633 36.78063202
26.79965591 2.63699913 33.22428894
26.55610657 2.467282057 29.34143829
26.14065552 0.8119647503 49.53355408
26.34411812 1.940338612 34.63864517
25.93099594 -0.1508114934 39.33660507
25.89694595 0.959559381 30.26951981
25.90987206 -0.4777561128 36.80992889
26.0570488 0.6435114145 44.26971054
26.33754158 1.775625944 39.00502014
27.48782349 3.036026478 47.59671402
25.9335289 0.3169834614 34.73391724
25.80324554 0.1603078991 30.93611908
25.90748024 -0.006789186504 39.18519211
26.3415432 -1.455078125 47.70488358
25.9010601 0.9446816444 31.40200806
26.01468468 0.7977469563 39.65414429
25.94652367 0.6329135299 36.09399033
26.03164291 0.4710414708 44.37060165
25.95787811 0.3215401173 40.53430557
26.07871437 0.1518372744 48.82499313
26.04110146 -1.118983269 36.88087463
27.05296516 -2.655711889 45.54763794
26.05280304 1.279544473 33.3718338
25.95816422 -0.1755533665 41.81773376
26.23650742 -1.614863276 38.14331436
26.45646477 -1.78129375 46.56367493
25.8810463 -0.4807133973 34.19751358
26.47049904 -1.946840286 42.01031113
28.10268402 -3.645971775 36.80035019
26.70978355 -2.297930717 43.35773087
25.80036545 0.3186269104 30.25855637
26.01397324 -1.120913267 34.80604553
25.98646164 -0.1550374329 43.56218338
26.39551735 -1.630902052 47.66973877
26.11197281 -1.615923762 31.56682968
25.97006416 -0.6373355389 39.74765778
26.04531097 -0.7948814034 43.57242203
26.13968658 -0.9722064137 44.84672928
26.21477127 -1.139273643 46.16267776
27.00507164 -2.659622431 43.23503876
26.18503571 -1.447300434 39.74726105
27.27941132 -3.207134008 31.15655327
26.66871262 -2.144372702 47.58436584
27.66977882 3.249486685 44.84078979
26.90593529 2.812425613 31.47474861
26.72152901 2.311731339 44.01106644
27.8885231 3.608128071 32.31725693
26.46372604 1.796112418 46.56690598
26.2911129 1.624113917 41.37139511
25.92070198 1.11177659 30.56488037
25.89382362 0.7971192002 31.8406601
25.79835701 0.1560726017 30.61951828
26.82169342 2.640595675 34.47254944
26.74678612 2.465758562 39.10269165
26.72174644 2.297698259 43.69167709
26.71671486 2.139610767 50.2348671
28.06295586 3.631805182 36.09305573
25.85689163 0.6401255131 31.67952347
27.52190399 3.222728968 39.57511139
27.5002327 3.047242403 48.35758972
27.16338539 3.004688501 35.56993866
26.17711067 -1.112507582 43.92211533
25.93662453 0.001257135998 39.9323349
26.33831024 -1.44966507 48.45620728
26.67975616 2.455853224 36.31256866
26.7312851 2.301214695 44.83917236
25.93100357 0.9524123073 32.78031158
25.98581696 -0.4798348844 41.20566177
26.12589455 -0.6430673003 49.77626038
26.09856606 -0.8054812551 45.93906403
26.29635239 1.613780499 42.42981339
25.80373573 0.3174726665 30.5216198
26.06892776 -1.114962459 38.91830826
26.90755653 -2.655401468 35.04618073
26.88746071 -2.81014657 31.0753727
26.07189751 0.9518164396 39.86514282
26.12990379 0.7860960364 48.16527557
26.25520897 -1.777928233 35.6661911
26.2707119 -1.94138968 31.12490654
26.50004387 -2.112783909 38.88764191
28.2444706 -3.831064701 30.56063461
26.03759575 -1.118193507 36.19245148
25.93700027 -0.00204460253 41.13225174
26.41809845 -1.609910488 49.72254181
26.16204834 -1.61835134 33.60266495
26.31134415 -1.782517791 37.43014145
26.45193672 -1.954512715 41.31049347
26.63381386 -2.130815506 44.57730484
26.15504456 -0.9770604372 46.89426422
26.19205284 -1.288495183 42.41933823
26.64274788 -2.130088091 45.7151947
27.09862518 2.672537804 47.50862122
26.63126373 2.296262741 40.8538208
26.44628334 1.797787189 46.02324295
27.00291443 2.826677084 36.68328857
26.04858017 1.279253721 33.19358826
26.20564461 0.9706201553 50.45870972
26.14588165 0.8088513017 48.51288223
28.25625801 3.483319998 50.92217255
25.88431931 0.6238227487 33.25052261
27.45327187 3.215907812 36.44071579
26.28549004 1.455689192 44.5515213
27.11652184 2.660332203 49.17509842
25.89051247 -0.165662989 36.42689514
25.91811943 0.7956286073 34.32453156
26.01472664 0.6367262602 41.97147369
26.12754631 0.4745448232 50.28597641
25.949543 -0.9529134631 33.86438751
27.14511871 2.846532822 42.34320831
26.66554642 2.458369732 34.46178055
26.08997154 0.9512518048 43.08920288
25.96243286 -0.482142061 39.42427444
26.3493042 -1.945885301 35.94159317
26.6050148 -2.115805387 44.36535645
26.21318626 1.767578721 32.26070786
25.94214058 0.3222158551 40.77942657
26.23055267 -1.12944746 49.30423355
26.04746437 -1.129250526 37.11408234
26.12867737 1.11919117 41.90763855
27.56331635 -3.060533762 50.57372665
26.22548485 -1.620031834 37.73449707
26.46505165 -1.782976389 46.13280487
25.94430923 -0.7991573811 36.34280396
25.97904968 0.32101354 42.52841568
26.26462746 -1.12366879 50.4229126
26.23238564 -1.77378571 34.34337997
25.99833107 -0.800793767 39.36929703
26.08379745 -1.123963594 39.36204147
26.84160042 -2.646741629 36.14857864
27.81988144 -3.271756411 49.66548157
27.45456314 3.051033974 45.65042877
26.51777649 2.278594255 33.80269623
26.53459358 1.964982867 44.86542511
27.54418564 3.223716497 40.75612259
26.17776299 1.609344006 36.48032761
26.9867897 2.499945641 50.05894852
26.14894485 0.9735270739 45.44267273
26.64610291 2.135584116 45.37644577
26.1295166 0.4801494181 50.54515839
27.19494057 3.012240648 37.2462883
25.97057915 0.1709477901 41.62339783
27.04384613 2.664007902 45.93193817
26.9997654 2.489385128 50.56121826
25.84726143 -0.1639268845 34.03110123
26.04142761 -0.4732720852 44.79476547
27.87997246 3.610072136 31.44710732
25.93662071 -0.8042858839 35.28150558
26.31979752 1.631528974 43.21687317
26.39693451 1.469603658 51.62869263
25.94332504 0.1634306312 39.55404282
26.26208305 1.296539426 47.73073196
25.84513092 -0.001968530938 35.75948715
26.06254387 0.9668350816 40.65555573
26.13685036 0.7970481515 48.97826767
25.97420502 0.7898311019 36.84423828
26.08058357 0.6373929977 45.39032745
26.01249123 -0.8000234962 41.7195282
26.03230476 -0.9619366527 37.88728714
26.9223423 -2.484676361 46.48172379
26.6544857 -2.468303442 34.01491928
26.97163582 -2.652586699 42.53584671
26.09475327 -0.1536819935 50.48823929
26.08030319 1.117787004 38.1993866
26.14426231 0.9580000043 46.50282669
26.01131821 0.7956606746 42.03380966
26.60027885 -1.958251595 50.19213104
25.92960358 -0.6358174682 37.74745941
26.06227684 -0.799595356 45.38857269
26.40574455 -2.110233784 32.60963821
26.02031898 -0.9596757889 38.37246323
25.96994972 -0.3204860389 40.77358246
28.20175743 -3.481969118 50.03684998
25.86279869 -0.6283902526 32.52879333
25.91386604 -0.7991039157 34.41574478
28.37555885 -3.852200747 33.23748779
27.19730949 -2.682328939 52.21559143
27.40472412 -3.02940464 44.9054718
26.36802673 -1.947324395 36.20302582
27.61467934 3.228552818 43.7389679
26.95414162 2.815678835 34.42234421
26.77390099 2.318532467 46.31256485
26.42734909 2.115162134 33.30192184
27.34681511 3.029490709 42.20584106
27.04688454 2.826182604 38.21273041
26.82919502 2.651232481 34.27305603
26.85052299 2.304088593 51.44355011
26.17707825 0.6476197243 52.60044861
27.64299393 3.405252934 35.20722961
25.97338676 0.4846151173 39.21294403
25.99661446 0.324221909 43.02380753
26.03772163 0.1707656682 47.47798538
26.09631538 0.003349837149 51.94043732
26.82859612 2.638346195 35.44417953
26.02583313 -0.3072975874 44.29517365
26.71388435 2.125752211 50.58086014
28.08708191 3.633603811 36.98915482
26.04787827 -0.6292638779 44.92728424
26.1601162 0.4770320356 52.46414566
27.52560616 3.216191769 39.83789062
26.19443512 -0.9567649364 48.14505005
25.8690834 0.3163197935 35.88409042
25.98759842 0.1550580561 44.13853073
26.13064957 1.278080106 40.14341354
26.07006836 -0.1517452896 48.61127472
25.98738289 -0.4826469421 40.95988083
26.62677574 -1.960016608 49.81778336
26.3976059 1.940263391 37.62317276
27.00755882 -2.495834351 50.58839035
25.89620209 0.149257347 37.88940048
26.28280449 1.284554005 46.00951385
26.04942513 -0.4810093939 45.51839066
26.15402603 -0.810915947 49.37165833
28.06983757 -3.643199921 35.69983292
25.97157097 0.3140311241 41.54877472
26.24763298 -1.135743618 48.11491394
26.11840439 -0.009682407603 52.35494995
26.09920883 -0.489688307 47.90983582
26.15346527 -0.648248136 51.74111938
25.94161415 -0.7851613164 37.08878326
27.33288193 -2.859305143 50.38113403
26.35583878 -1.78639245 41.5259285
27.65871239 -3.421682119 35.45346451
26.72290421 -2.299977303 44.75721359
28.15691185 -3.654166222 37.94694519
27.05395126 2.830052853 39.83099747
26.93363953 2.324285984 53.71207428
26.47455788 2.106878042 37.31600189
26.5044384 1.788877368 49.64431
27.39278221 3.03442049 42.9891243
26.78470612 2.641750813 33.74654388
26.21386719 0.9681564569 50.84386826
26.16521835 0.8056412339 50.19763947
28.3602829 3.494916677 53.27388
26.30049133 1.61258626 43.00561523
26.08140373 0.001347504207 51.43861008
25.84766388 -0.0003028805659 35.57360458
26.02290344 -0.3113524914 44.43641663
25.94088364 -0.4807329476 38.08747101
26.0845356 -0.6270216703 45.07664108
26.36582184 1.781002879 40.25582504
27.52103424 3.051446438 48.71901703
27.16186142 2.83962965 44.64738083
26.35631371 1.295872211 53.16135406
26.32652092 -1.440169573 48.94599533
25.8931427 -0.1621214598 36.65230942
26.13148117 0.9766121507 44.75926971
26.36436844 -1.781708837 40.58151245
26.58281708 -1.952638388 49.26629257
26.40110016 -1.953867197 36.93850327
26.44155693 1.785778999 45.519104
26.2342453 1.77826333 33.27820587
25.99503517 0.3176106215 41.83268738
26.72926521 -2.463985443 38.16278458
26.2523613 1.285182595 46.79413605
25.83671188 -0.0003165137023 34.86194611
27.12136459 -2.840405464 42.74790192
26.20938683 0.9638810754 51.2637558
25.91359329 -0.31751284 38.66388321
26.45313263 -2.11787796 36.09636688
27.20010376 -2.680292845 52.59939194
26.09572029 -1.296769977 36.05217361
26.21809578 -1.456145287 40.52639771
26.11533928 -0.4804872572 49.31702805
26.66277122 -1.960110545 53.55082703
25.91192436 -0.6402311921 35.32899475
26.50653076 -2.11831665 38.5345993
26.69544792 -2.46248889 36.51800919
26.0365715 -1.274257183 33.36740875
26.4102993 -1.622255921 49.39120483
26.45232773 -1.949144363 41.64635468
26.75769806 -2.480879784 38.31745148
27.60079575 -3.06332612 51.03514099
27.68655205 -3.419077635 36.74547577
27.65834999 3.412798166 35.74853134
27.13157082 2.842906237 43.26976013
27.10197639 2.842169523 40.42206192
26.11713982 1.282118559 36.90292358
26.73083687 2.136399984 51.64351654
26.15939713 0.6437107921 52.24563599
27.63041496 3.411323547 34.02409744
27.44299698 3.202317238 37.49634933
26.30319595 1.616436481 41.83961868
27.20716858 2.850680828 45.60110474
27.13776016 2.667597055 50.27519226
26.730299 2.452436447 38.34263992
26.01362419 -0.3200550079 42.67531204
26.04974174 0.6442472339 43.77852249
27.4706192 3.215581417 37.33016205
27.48087311 3.051261187 46.12122726
27.10964394 2.836462736 42.10772705
26.30892563 1.297489405 50.70524216
26.13203812 1.269442081 38.48929977
26.20695114 1.120474219 46.82704544
25.86478043 -0.1523275971 34.90205383
26.31818008 -1.617188454 43.2935524
26.75688744 2.129331589 51.9701767
25.9942646 0.7968435884 39.80291748
26.11101723 -0.6465141773 48.51610947
25.93634796 -0.6358445287 36.40103912
26.58655357 -2.117500782 44.85548401
26.92391586 -2.316223145 53.42238235
26.64378357 -2.294296741 40.92909622
26.33297157 1.449849606 49.50614929
25.90159798 0.1513441056 37.53215027
25.99963951 0.0101369163 45.78876877
26.32401085 1.119649649 53.99995422
25.95978165 -0.161252737 41.98197937
26.19257164 0.964142859 50.11816788
27.7053299 -3.229369164 46.23561859
26.69886971 -1.954386234 54.513237
27.86059952 -3.445799112 41.44263458
26.14651871 -0.8060831428 49.0063324
26.64891243 -2.304376841 41.42376328
26.34760666 -1.292363286 51.62451553
26.07886124 -1.283789992 35.55301666
27.06612015 -2.830145597 39.35721588
27.39653206 -3.039488554 44.02376938
26.09720421 -0.4847144186 48.19286728
26.15325356 -0.6513791084 52.02148438
26.38599968 -1.30799675 54.02565765
27.32736588 -2.861096859 50.58317566
26.38513947 -1.62621212 46.29459381
26.38087845 -1.789430499 42.42661285
26.34951019 -1.945773363 36.59331512
27.04598045 -2.669163942 46.34764862
27.22384834 -3.020785332 38.32437897
27.4868145 3.218783379 38.63152695
27.12010193 2.684165716 48.7063942
26.68419838 2.31140852 41.44285583
26.42810059 1.795659781 44.72544861
27.29525566 3.018569231 40.51573944
26.13686562 1.447053671 37.03969193
27.07334328 2.496823549 54.51755905
26.12156296 0.8114970326 47.91664886
26.14727974 0.6459767222 49.83251953
27.30586433 3.033920288 40.34294128
27.17873383 2.838877201 44.38174057
26.06683159 0.007677871734 48.53644562
26.13642693 -0.1564750671 53.02301407
25.87229729 -0.1610951871 37.13132858
25.96330452 -0.3179836571 41.56358719
26.09096146 -0.4726431072 48.54037857
26.15324974 -0.7909253836 50.47320175
26.32613754 1.293685675 50.85145569
25.8924675 -0.0002482409182 38.84869766
26.30391502 -1.448488593 47.30581665
26.01819229 -0.3199725747 43.30453873
26.55572319 -1.796743751 51.8769455
26.34242439 -1.777139068 39.55530167
26.41750336 1.783391356 44.50123978
26.07262421 0.1525517553 49.12609482
26.22420692 -1.28496635 45.47025681
27.43936729 -2.86454916 54.39452362
26.21956253 -1.455386162 41.59751129
27.55128098 -3.036232471 50.38537979
27.22747993 -3.02556324 37.6035614
26.69375038 -1.970893383 53.99007034
25.99948883 -0.65147084 40.84448624
26.67383194 -2.123866081 48.09609985
26.50824928 -2.11610961 35.03450394
26.63724709 -2.298737049 39.57397079
27.0953598 -2.668631077 48.80449295
27.42291451 -2.873197556 53.58403778
26.97828484 -2.813392878 36.81351089
25.96436501 -0.3254103065 41.33475494
26.43839455 -1.786513567 44.66336441
26.58463287 -1.957868218 48.56838608
26.73618317 -2.133660316 51.88217163
26.26436424 -0.979028821 54.12591171
26.30201149 -1.298019052 49.01036835
26.27987671 -1.458074093 45.15802383
26.28703308 -1.62185216 41.27867126
27.44919014 -3.222351551 35.81563568
26.58624649 -2.292124033 37.31230164
27.38651085 -2.879072666 51.86923599
27.56485176 -3.235497236 41.06820297
28.35273361 3.67550993 42.70304489
27.22729111 3.017541885 37.45908356
26.42847633 1.946282983 39.6864624
26.50709534 1.631177783 53.93153763
27.33742905 2.866051674 50.04244614
26.25905609 1.298493028 46.16604233
26.82741737 2.466217041 42.70290375
26.60676765 2.289867401 39.45461273
26.56162643 2.121438265 40.77490997
26.50554276 1.95994997 43.38473511
26.08465767 0.4886091948 46.16259003
26.11105156 0.3295994699 49.9860611
26.18627167 1.115048647 46.63930511
26.11079407 -0.3189971745 50.61500549
26.54312706 2.279277325 35.36519623
26.12777328 -0.6301635504 49.34893036
25.9418087 0.6403473616 36.44387436
26.04660416 -0.8001143932 44.24121857
26.26512718 -0.9568817616 52.57809448
26.0584507 0.1579930782 47.90429306
26.04045105 -1.119719744 35.9483223
27.00658989 2.655588865 44.3494873
26.29078865 1.126499653 52.92132187
25.94921494 -0.1609797925 40.90702438
26.17029381 0.9591494203 49.02630615
25.90910149 -0.3207150996 37.08799362
26.43144798 -1.783328652 45.51266098
26.69887352 1.960648537 54.42700195
26.01644516 0.6358254552 42.27724838
25.98800468 -0.7980372906 38.59018326
26.25646782 1.438876271 43.36597443
26.14558029 -1.280708909 39.84192276
27.27975464 -2.855862617 48.44551468
26.0424366 1.120332956 36.36234665
27.41495705 -3.042034864 44.42564392
27.91743279 -3.262034655 53.31232452
26.58641052 -1.963680148 48.22238159
25.92178726 0.6390795708 35.77523041
26.0719471 0.3206892312 47.84617996
26.30390167 -1.137504458 53.82507706
25.9139595 0.1518856734 37.6790123
25.96250534 0.002807179 42.12269974
26.12008667 -0.322060585 51.04320145
25.971632 -0.4764732718 38.94152832
26.85101318 -2.480155945 42.80755997
26.13758659 -1.28638792 39.52400589
26.13685989 -1.442068219 35.67803955
27.87491035 -3.264606714 52.28748322
26.51877213 -1.957519889 45.28890991
26.70087624 -2.461640835 35.42713928
27.49073601 -3.047894478 47.96532822
27.98969078 3.276235819 54.54944229
27.18210602 2.84381032 44.97197342
26.72490311 2.475096941 37.10350418
26.48326111 2.113291502 38.50098801
26.57834625 1.808158159 52.82294083
26.40886116 1.629509807 48.23620605
26.71103859 2.471201181 36.92769623
26.24236107 0.8044068813 55.28536224
26.47774124 2.128037691 36.36064148
26.36491013 1.62270999 46.14130783
27.33338547 2.862036467 50.66439438
27.25586891 2.682944298 55.35216522
25.91386032 0.003133180551 38.68787003
26.77607918 2.310545206 47.28077316
26.19376373 0.8101371527 52.5647049
25.98883057 0.7986722589 38.48328781
28.18197632 3.468768597 45.76480865
27.55453491 3.224987507 41.02750015
26.42590141 1.626025915 49.86959839
25.91742134 0.3207076192 37.87158966
26.96604919 2.650877476 42.49127197
26.26834297 1.121711135 51.1254921
26.07705498 1.108129978 38.94554138
26.05639458 -0.3260917962 47.42441559
26.19718742 -0.4841985404 55.75642776
26.4112072 -1.782019734 43.72153854
26.64848328 1.96161437 52.59778976
26.44825363 1.946875453 40.24644089
26.09703255 0.4821248949 48.81047058
25.92638969 0.4724384546 36.70950317
26.13556671 -0.9620584249 44.4829216
27.04878235 -2.497071981 53.20946503
26.2898922 1.287862062 49.30002213
26.0988636 1.289387107 37.14461517
26.1741581 1.116600037 45.45442581
26.25796318 0.9619563818 53.7963295
26.05775452 0.954177022 41.61877823
26.5001297 -1.786147594 49.66050339
25.95939827 0.8038572669 37.20315933
26.19876099 -0.8088529706 52.0273819
28.14612389 -3.649854183 38.21680832
26.00426865 0.3186792731 44.18977737
26.08224678 0.1543446481 49.90677643
27.2323494 -2.676499128 54.42917633
26.86877632 -2.646372557 37.7803421
26.05876732 -0.3264963329 46.73299408
26.14738846 -0.4882935882 51.20793152
27.64615631 -3.396434546 36.1270256
28.60054779 -3.874212265 36.45780945
26.38693619 -1.303914905 54.47199631
26.39701653 -1.628538966 46.73613358
26.351408 -1.77344501 40.91233063
26.79370499 -2.149554014 54.60621262
26.83532715 -2.635558844 36.83735275
27.80952263 -3.260807276 49.46107483
28.74503899 -3.901986599 37.48537445
27.68549538 3.077100515 53.88980865
27.02637291 2.666007996 43.77301788
26.63069725 1.970074415 45.81056595
26.44182014 1.466691971 55.49658203
26.33190346 1.301518917 51.60857773
26.12168503 0.9692242146 43.90695572
26.58323097 2.124688625 43.01665497
26.12288284 0.4819343686 49.66724777
27.66416168 3.055473566 54.24762344
26.22455597 1.623620033 37.27451324
25.95571518 0.1598864049 41.39834213
26.2466774 1.286740065 45.67436981
26.09787941 -0.1591218263 49.66463089
26.6185627 2.289225817 38.90097427
26.08005524 0.8031163812 45.0274086
26.16165733 -0.6308553815 52.85116196
26.10074234 0.4780075252 48.22468948
26.11219597 -0.9546664357 43.91455078
26.09850693 -1.127814531 40.07010651
26.29390144 -1.282400966 48.38861465
26.18053436 -0.1648412645 56.55063248
26.16346359 1.120457768 44.22190857
25.99028587 -0.3136758804 40.57381058
26.51136208 -1.785528898 49.04922867
26.75827408 -1.965813041 57.82643127
26.1649456 0.4779008329 53.4599762
26.01960182 -0.8040569425 41.4693985
26.22720528 -0.9651100039 49.7803154
26.5839386 -2.291853666 37.56622314
25.9584446 -0.008046910167 42.60005951
26.37388229 -1.445282578 51.08113861
26.24052048 0.8031334281 54.5834198
26.37650681 -1.792069912 42.02081299
25.92872238 0.6439351439 37.36872864
26.15718651 0.1583409458 54.55801773
26.7549057 -2.469036341 37.96928024
25.94965935 -0.001796811237 42.45388794
26.03153419 -0.1644854695 46.26652908
26.09672928 -0.312736243 50.08381271
27.90381813 -3.253574371 54.04594803
28.54249001 -3.511598825 58.42812347
26.4159584 -1.953283072 38.58638
26.02311707 -0.7948562503 40.52047348
26.39863777 -1.303168297 55.92134094
26.40533829 -1.620059609 48.17153931
26.80459976 -2.157123804 55.39486313
27.65801048 -3.248060226 44.80194092
28.25540543 3.657767057 40.21839523
27.11008453 2.502352715 55.21445084
26.43128777 1.950665593 38.82346344
26.50214577 1.637476325 53.7305336
26.34799576 1.46533072 49.1996994
26.08564568 1.123653412 40.24242401
28.7318821 3.908429623 36.84742737
28.16105652 3.651744604 37.78286362
26.45686531 1.953672409 41.22467804
26.44389915 1.782966256 45.14090729
27.52612877 3.052308321 48.90559006
27.41684914 2.864767313 52.95270538
26.21239281 0.00360208354 56.85760498
26.93982506 2.644706726 40.26107788
26.23162651 0.8037701845 54.16888809
26.01358414 0.7992110252 40.72325516
26.10809135 0.6454537511 48.39644623
26.20809364 0.4831573665 56.07785416
27.61465263 3.225299597 43.306633
26.23423195 -0.9611009359 51.7460556
27.2644043 3.021184206 39.32813263
26.32657242 1.458470702 48.23142242
26.40408707 -1.297769785 56.28723907
25.97237015 -0.0009960279567 43.92482758
26.38911247 -1.449204564 52.42909622
25.93956757 -0.1607403159 40.10646057
26.39530754 -1.606193423 48.55096436
26.84365463 2.1416471 57.25111389
26.62709999 2.134032488 44.79605484
26.65804482 -1.957650304 53.38995361
26.68939209 -2.12458992 49.47938919
27.00240135 -2.322352171 58.09066772
26.42665672 1.455021739 54.16458511
25.9456749 0.1541998088 42.12837219
26.08563042 -0.003042796627 50.41202164
26.12731743 1.294420004 38.08773422
26.35700226 -1.457523465 46.07381058
26.26352501 0.9615577459 54.12400436
26.20684433 -0.6410932541 56.82876587
26.0656414 -0.647946775 44.02893829
25.97467995 0.3174864352 41.97846222
26.03705025 0.1531202644 46.42728424
26.08263969 -0.006182142533 50.87238312
26.1722641 -0.1583904028 55.36156464
27.02100563 -2.827581644 38.66372299
27.74047089 -3.250044823 47.31679535
26.14771271 -0.6480916739 50.88518524
26.784338 -2.148960352 53.10006714
26.26676369 -0.9678684473 54.75722504
26.29991722 -1.291175485 49.62121964
26.23727036 -1.610828042 40.60124207
28.44662666 -3.50863409 55.52394485
28.46585083 -3.683067083 46.39785004
26.97179222 2.334583282 55.98711777
26.49936104 1.786166906 48.71305084
27.36482811 3.040309191 42.45527649
26.17572594 1.441905141 39.10155869
26.90480804 2.317091465 52.50440979
26.15466118 0.6493093371 50.63362122
26.59649467 1.806020141 53.11035919
27.75873566 3.075901508 57.9196701
26.27256203 1.616239548 40.78594208
25.98886108 0.1558823287 44.90584183
26.19105911 -0.6429544091 53.82130814
26.44709587 1.947455764 40.58883286
27.7294445 3.243437767 48.19707108
26.20358658 0.3166969121 56.24571991
26.34181023 1.614204288 43.86181641
26.29525566 -1.120896101 51.92719269
26.35484314 1.127655149 56.13652802
26.01041794 -0.1644489914 44.09029388
26.48280144 -1.620437264 52.58787155
26.62560844 2.27833128 40.35781097
26.67856407 2.128160715 48.87270737
26.233778 0.6411369443 57.62876511
26.51745796 1.951969624 45.2301178
25.9782238 0.4700610638 41.65624237
26.2046814 -0.9626178145 50.11875534
26.90721893 -2.488397121 46.33893585
26.38321877 1.290391326 54.29495239
26.31932831 0.9648361802 58.13155746
26.1484108 0.9660037756 45.93902969
27.91264343 -3.250384092 54.4539032
26.01497269 0.8007654548 41.49668884
28.15848732 -3.473018169 48.97505951
26.59606743 -2.1248734 42.92237854
26.8299427 -2.312760115 48.81053543
27.04694176 -2.488184929 54.1180687
26.947155 -2.651773453 42.16377258
26.03928375 -0.1659630239 46.59717178
26.10433197 -0.3158310652 50.41148376
26.17938423 -0.4769230485 54.8941803
26.74933434 -1.976530075 58.48119736
26.63786125 -2.294701576 40.11106873
27.29854393 -2.68903923 58.01143646
26.41178703 -1.465774059 54.30224609
27.74106598 -3.420139313 38.32849121
29.14456177 -3.950970888 42.1036644
27.59228516 -2.894613266 59.27920532
27.79014206 -3.262541294 49.13921356
27.50592804 2.886975527 56.26398087
26.9396019 2.483447075 47.53256607
28.03046036 3.281128883 56.23511124
27.56550026 3.052482843 50.02442932
26.27893829 1.448559284 44.37207794
26.96113205 2.66677928 40.69995117
26.33363152 0.9689559937 57.88373947
26.80103683 2.143720388 55.275177
26.67241096 1.801499009 58.50967407
26.35950089 1.792874694 40.92387772
26.05639648 0.1650727987 48.25115585
27.19771957 2.675406694 52.51771927
26.79063797 2.468189478 40.60329056
26.02853584 -0.3239960968 45.0773201
28.94607162 3.757836342 50.3853302
27.94287682 3.447875977 43.47417068
26.15207291 0.479198426 51.91809082
26.34899712 1.770928264 39.47076797
26.45081902 1.459771991 55.68641281
26.15633202 -1.12347424 43.12211609
26.32332039 -1.278691888 51.45908356
26.51985741 -1.45709312 59.88220215
26.96748352 2.30331707 56.28764725
26.11267281 0.9605053663 44.0904541
26.16489601 -0.4834622741 52.55696106
26.62609482 -2.130298376 45.22529984
26.28749466 1.614431739 40.9249382
26.41738892 -1.296068192 57.39512253
26.0011158 -0.006370555609 45.00829315
27.40884399 -2.870232582 53.14310837
25.94680214 -0.168842569 40.56634521
26.16882133 0.948641777 48.67985535
26.65213203 -1.800827742 56.82460785
26.15337181 0.6422104836 51.23213959
26.25602531 0.4723178148 58.92629623
26.85567093 -2.313119173 50.27889252
26.17017365 0.1629499346 55.70713806
27.33068085 -2.679182291 60.35942459
26.21430969 -1.292025566 43.68241882
26.4669323 -1.622183084 52.06459808
26.20876694 -0.4932101965 56.3423233
26.77752113 -1.969693303 59.95102692
26.50025749 -1.961929202 42.29646301
26.036129 -0.7953230143 42.94379425
26.06228447 -0.9605007768 41.01345825
26.4280014 -1.306452155 58.34111023
26.42298317 -1.465096474 54.47527313
27.5313282 -3.044943333 50.1195488
26.44171143 -1.946393967 39.56531525
27.59506226 -3.236063242 41.79841614
28.07231331 3.458382368 46.16894531
27.28083801 2.862747908 48.30575943
26.79383469 2.476572752 40.44669342
26.58138084 2.122360468 41.83912277
27.52582932 3.053165197 48.11966324
27.1269989 2.836789131 42.79078674
27.20497894 2.513537645 60.19294739
26.28710938 0.9817835093 56.10416031
26.77047157 2.154291153 53.45935822
26.72816467 1.979789853 55.40603256
26.27266693 0.3207228184 60.58645248
27.38871956 3.029908657 43.90393066
26.09216309 0.007087739184 51.61641693
26.18134117 -0.1471494585 56.07798767
26.10538673 0.9615323544 44.42049026
26.11627388 -0.4737417698 49.70492554
26.48693085 1.943793297 42.84006119
26.35347366 -0.9645277262 58.69883347
26.15100479 -0.9628917575 46.49937439
27.12769699 2.850432396 41.80154037
26.39758301 1.128356934 58.41308975
26.20583344 1.124859214 46.15884399
26.94047546 2.322331429 54.45032501
26.0830574 0.9653841257 42.33958817
26.18667221 0.8083401918 50.65164566
26.77530289 1.965286016 59.28069305
26.54789925 -1.95887363 46.69668961
26.79588509 -2.131372452 55.19065857
26.24130249 0.1515119672 59.91426849
26.03692627 0.1593603939 47.73902893
26.20814514 -1.289636612 44.00379181
26.11940384 -0.1502238214 52.18600845
26.2547226 -0.3185177743 60.55149841
26.17102432 0.9580733776 48.20344925
26.03785324 0.8019694686 43.10894775
26.13402939 0.6331974864 50.77075577
26.84874535 -2.13439703 58.35343552
26.59256744 -2.127872229 43.89025497
26.19064903 -0.9590293169 48.99844742
26.20510483 -0.009519141167 59.07806396
25.9840374 0.002878706902 43.14355469
26.30962944 -1.451895595 47.06102753
26.11700249 -0.3281581104 51.40015793
26.28451347 -0.6545783281 59.75395966
26.03667831 -0.6362783909 43.11064529
26.59400368 -2.130738735 43.73313522
26.07336235 -0.9590177536 41.8127327
26.44738007 -1.308907032 59.16471863
27.45508766 -2.875104427 55.66680145
26.49060631 -1.796661139 48.16732407
27.93259048 -3.455714703 42.6573143
26.97284317 -2.653576136 42.79769135
27.86687279 -3.263123512 52.129673
26.4360466 1.628219008 50.50318527
26.28121948 1.455045819 46.01018143
26.97668648 2.659728289 42.32201385
26.80378914 2.138609886 55.58774567
26.21422768 0.6534287333 56.26873016
26.25297737 0.489733845 59.49040604
27.39937019 3.037927389 44.05302811
27.22561455 2.845122576 46.78156281
26.31162834 1.29016304 50.35552216
26.33899879 1.138207197 54.21924973
26.07569885 0.9596320391 42.02463531
26.27869225 0.4800063372 60.64063644
26.55051804 1.630897403 55.38364792
26.00901794 0.3231573105 43.3316803
26.23225975 -0.008886286058 59.97541046
26.04563522 0.0008601102163 47.80488968
26.45186424 -1.449103713 56.31697083
26.33207893 0.8085327148 61.13022995
26.11025047 -0.4796841443 49.07450485
26.76011467 -1.965145707 57.98659515
26.7773304 -2.136412859 54.04831314
26.56898499 -2.124247789 41.63957977
26.41261482 1.626338124 49.64435196
26.47480774 1.451930523 58.05981827
26.35474968 -1.286283255 53.84318542
25.94402504 -0.009811223485 41.55374908
26.26055717 1.132238746 49.65768051
26.30323219 0.9653122425 57.3658638
26.02462959 -0.3381716609 44.72982407
26.16691399 -0.4818543792 51.74102402
26.05998802 0.6264593601 45.84375
26.3481884 -0.9771926403 58.19722366
26.65060806 -2.286590576 42.06571198
26.03234291 0.1549229026 47.13661957
27.35159492 -3.026392221 43.14157104
26.4843235 -1.790792942 47.20339203
26.62407494 -1.963011622 50.45073318
26.15854454 -0.8048500419 50.94602203
26.94783211 -2.483163834 47.77116394
26.20082092 -1.289471984 44.51664734
26.94874954 -2.322885752 55.55066681
27.11513519 -2.66684556 49.58558655
28.25045586 -3.31469059 61.29850769
28.42774963 3.507488966 54.75466156
28.3717823 3.675721169 43.3455162
26.62491417 1.811240911 55.87870789
26.45100212 1.636154532 50.02725983
26.30160522 1.454305291 46.17676544
26.9686451 2.665506124 41.81394577
27.03572655 2.33551836 59.10493469
26.81866264 2.145992517 55.75366211
26.22794914 0.6489062309 55.18310165
28.13661194 3.291032791 58.55718994
25.99647903 0.3116318583 43.70469666
26.0339756 0.1613946557 46.88204193
27.17336655 2.680961132 50.97007751
26.17591286 -0.1555821151 55.17627335
25.99453354 -0.3185184598 43.05867004
26.09337044 -0.483558774 47.5141983
27.84417152 3.43712759 41.13671112
26.50314903 1.786209702 49.05796814
27.76638985 3.077018976 56.91047668
26.10954094 -0.9696648717 44.30256653
26.12714577 0.1589384228 52.45491791
26.49103165 -1.294943094 61.0388031
26.28886414 -1.281243086 48.75971222
27.13738441 2.487541199 57.43730164
26.87152481 2.4754107 44.87064362
26.31359673 -0.4791437685 62.10960388
26.53263664 -1.785031199 50.02119827
26.7433567 -1.966278076 58.78693008
26.54623032 -1.958750486 46.39347839
26.20804787 -0.801189363 54.66367722
26.57786369 -2.12695241 42.46205902
26.9890728 -2.657349825 43.60328293
27.38867378 -2.873916626 52.24184799
27.84140205 -3.089069605 61.12290192
26.1548214 0.9605212808 47.93383789
26.04742241 0.7889608145 43.48223114
26.14782524 -0.6427989006 50.65725327
26.27934265 -0.8180379868 57.72954559
26.19814301 -0.9718513489 49.36233902
26.27168846 -0.1721881628 62.01117706
27.15894127 -2.839514732 44.69613647
26.10636711 -0.3158556819 49.21368408
27.9293251 -3.278414249 52.75291824
26.69800758 -1.971536517 55.19828033
26.29833221 -0.9596059918 56.26758194
27.03112221 -2.500872374 52.57215881
27.14382553 -2.843663692 43.19993591
26.68569756 -1.808850288 59.58969879
26.67764473 -1.966575384 54.35977554
28.36234283 -3.677032232 42.75671387
27.09404564 2.51654768 54.12491989
26.66611481 2.132285118 48.22682953
26.48805809 1.640925288 52.80230713
26.32344627 1.446779728 48.92779922
26.22569275 1.276316047 45.09573746
27.07208252 2.329565287 61.93707275
26.86889267 2.152359486 57.90054703
27.59993553 3.240733147 42.21513748
26.05872917 0.3134053051 46.42683029
26.10446548 0.1554772556 50.25557327
26.39439201 1.292967081 54.58422089
27.18673325 2.513911009 59.14421844
26.84536362 2.477196932 42.54335403
26.15444374 0.9604098201 46.22269058
26.24536705 -0.6424832344 57.28060913
26.05231285 -0.6445191503 43.86621857
26.34372902 1.61109674 45.35505295
26.32783508 -1.127525091 53.44253922
26.24322128 0.003242892912 61.62697601
26.05186462 0.006757642608 49.45266342
26.47617531 -1.456432819 57.97902679
26.28486443 0.9704139829 54.39848709
26.95706749 2.146100044 62.84915924
26.27590179 -0.6445050836 59.3506279
26.55509949 -1.959575415 47.21165848
26.8058815 -2.138446331 55.69533539
26.40781593 1.300054073 55.81824112
26.18327141 1.28554666 43.60821533
27.36426353 -2.869203806 51.7262764
26.24853325 -0.3300484717 59.8241539
26.17687798 -0.477114439 54.04487228
28.11434555 -3.473731279 47.52322006
26.36815453 -0.9764846563 60.49699402
26.33571815 -1.291077018 52.11231995
27.46694183 -2.865342855 56.28097916
26.28561211 -0.3250256479 60.29471588
27.35311699 -3.023169041 42.76400757
26.06425858 -0.4798390865 46.21966553
26.13651466 -0.8135780096 48.12348557
27.42313766 -2.709674597 62.16868591
26.47838402 -1.467913747 58.41129303
26.49919319 -1.633383393 53.88042068
26.49778557 -1.79083848 49.34168625
26.72014999 -2.304543257 44.04772186
27.56746292 -2.89046526 58.64128494
27.71104622 -3.257505894 46.40318298
27.14063072 2.84008503 43.6011734
26.73697281 1.978280067 56.89878082
26.48751259 1.801440239 47.79414368
26.56287956 1.469944239 62.71564865
27.37622261 2.693525553 56.82305908
26.30143547 1.132513642 52.35005188
28.07696152 3.455053806 47.021698
27.71344185 3.074588537 54.6299324
26.4989109 1.463204622 58.65652466
26.01397133 -0.003325411351 45.99314117
26.97385979 2.488793373 49.30768585
26.27175522 0.9691593647 53.47711945
26.21928024 -0.4717405736 57.46596146
26.62732697 1.803041697 55.26189423
26.6654644 1.637316704 63.0901947
27.5440197 3.056207895 49.72335434
26.37985992 -1.128472209 58.13913727
26.07974815 0.1625535786 45.77557755
26.1493988 0.001128168893 54.11810684
26.98469925 2.492272139 49.8143425
26.09449387 -0.3177137673 45.77058029
26.80154037 -1.972881079 62.42332458
26.62174797 -1.964322686 49.98767471
26.06626129 0.4707930088 46.55459595
26.50238609 1.628833532 54.71051407
26.32160187 0.1540926397 63.23036194
26.0909996 0.158357203 51.03517151
26.21267891 -0.0007120476221 59.35908508
26.26424789 -1.291836381 47.2845993
26.44155884 -1.458074331 55.6824913
27.96976852 -3.10071826 64.86934662
27.61470222 -3.073639631 51.17551804
26.27976418 0.7963485718 59.20435715
26.10770607 0.8012536764 47.04164124
26.1961174 -0.6481465697 54.22774124
26.34352875 -0.8201342821 61.96707916
26.12513542 -0.8085020781 47.17852402
27.20913696 -2.507446766 57.07402039
26.23560143 -1.291113734 45.200634
26.34954071 -1.453450561 49.71217728
26.14480019 -0.3296912611 54.07107544
26.81744766 -1.980514884 60.81430817
26.9545784 -2.151262283 64.1416626
27.23295212 -2.674361944 55.57309341
27.3477993 -2.860585451 51.53682709
27.48497963 -3.048841715 47.45890808
26.74521065 -2.141520023 51.44713211
27.0761776 2.658689499 46.47629547
26.56609535 1.957399487 47.2938652
26.61413956 1.647995949 59.66970825
26.42040825 1.469795465 54.46730804
26.91546059 2.478503942 46.99641037
26.38427544 0.8116687536 64.12097931
26.31889725 0.6469903588 63.4591217
26.31863785 0.4864713252 64.09461212
26.07501793 0.4798704684 46.81897736
26.1285305 0.1596427113 53.19626236
26.18245125 8.367370901e-05 57.02486801
27.22933197 2.517616034 61.48722076
26.82440186 2.306813002 49.51866531
26.29719734 0.6501430273 60.73225784
26.08678246 -0.6405614614 46.81439972
26.18125725 0.4812118411 54.30620193
26.28912544 0.3238647282 61.38232422
27.51852989 3.050664425 48.52200699
26.5119915 1.46675992 56.743927
26.00289917 0.163487345 44.72677612
26.35038185 1.29013586 52.2056694
26.49722481 -1.450286269 60.29323196
26.22006035 1.119117856 47.70810318
26.32910538 -0.4902841449 63.96091843
26.74080276 2.132739067 51.33740997
26.79241562 1.972209454 60.14445496
26.57862091 1.955917001 47.72336578
26.21603203 -0.964125514 52.01341629
26.43000603 -1.127006888 60.41600418
26.06071091 0.1553693414 48.0435257
26.38470268 1.296648145 56.19369125
26.12144089 -0.1576654166 51.87187576
26.61605835 -1.809028983 55.89227295
26.35216904 0.6404770613 63.89820862
26.25730324 -0.791860342 56.34194565
26.39554214 -0.9763303399 62.17676544
26.20659256 -0.9782871008 46.05924225
26.09602547 0.1571644992 50.43586349
26.14434433 -0.005792933516 54.9088974
26.23705864 -0.1644564718 59.38655472
26.67574883 -1.642925382 63.55042648
28.34305382 -3.495797873 53.15262222
26.22571754 -0.8069727421 53.62192154
26.89509773 -2.315749884 53.08668137
26.95196915 -2.483443499 49.09613037
26.22956085 -1.281293631 45.90042877
28.1350708 -3.467863321 48.12136078
26.81859589 -2.307191372 48.97386551
27.64862633 -2.892379761 62.36256409
27.70240593 -3.242085218 46.71187592
27.03217697 2.171438932 65.88442993
26.58298492 1.959739923 48.11691284
27.44122887 2.861286402 55.7947998
27.17785454 2.674256325 51.78920364
26.2258606 1.126012564 48.24350739
27.02599716 2.180533409 65.72932434
26.35251999 0.6475781202 64.3109436
28.03944588 3.462156773 45.22282028
27.59581184 3.063263893 51.53180313
27.44134712 2.874700308 54.27614212
26.19320869 0.00493877707 57.86929321
26.90095139 2.486589193 45.67288208
26.7659893 2.141376257 54.3090744
26.29939651 -0.6442543864 61.07849884
26.59116173 1.950246572 48.42470932
26.64102364 1.800476551 55.62957764
26.4118576 -0.9624807239 63.68514252
27.57412148 3.050464153 50.7170105
26.47821045 1.463631868 58.87346649
26.21710968 -1.123818398 46.31074524
26.44338799 1.135394692 62.74979019
26.25365829 1.119935393 50.46461487
26.2328968 -0.3251144886 58.98984909
26.62560844 -1.799278021 55.29181671
26.8507576 -1.976691246 64.12575531
26.63030624 1.955356359 51.81913376
26.26707649 0.4839088023 60.40293503
26.47686577 1.788078904 47.93463135
26.97160721 -2.321367741 56.23566437
26.49959373 -1.143563151 64.49580383
26.14006996 0.1520552784 52.06528091
27.08835602 -2.679902077 47.58445358
26.18659973 -0.1616294831 55.89754486
26.32909584 -0.3230667412 64.27164459
26.31053734 0.8034247756 59.60219574
26.19529343 0.6418159008 54.46691132
26.64706421 -2.120620489 46.23097229
26.13302422 0.3111804426 51.27186203
26.22060776 -0.004622726236 60.2204895
26.58674049 -1.469645381 64.36714172
26.29212761 -1.451772451 47.5050087
26.47674942 -1.632169843 51.35710144
26.1875 -0.4797777832 55.10461426
26.28620148 -0.8130661249 58.30455017
28.38326836 -3.490582466 54.51768875
27.19712257 -2.689492464 53.0684433
28.24415207 -3.312151194 59.90070343
26.74830055 1.981152534 57.44828796
27.78349113 3.25235486 49.09333038
27.71279335 2.893213272 64.81822968
27.3649025 2.69629693 60.67237091
26.62734604 1.969156384 50.07820511
26.13234711 0.4814824462 51.02870178
26.19460869 0.1672041416 58.06645966
26.25618172 0.01329963002 62.56032944
26.02888107 0.009593765251 46.59123611
26.11396027 -0.1598457992 51.03324509
26.18235588 -0.3234001994 55.50130463
26.27398491 -0.4762386084 59.98776627
26.14879227 -0.6415266991 51.02466202
27.63580132 3.067449808 52.89247513
26.33987045 1.457195044 48.04927444
26.39066887 1.295659065 56.45631409
26.31847 -0.1613359302 65.00036621
26.30150032 1.130060315 52.60365677
26.25769997 -0.3163717985 61.11791992
26.22986984 -0.4934256673 57.2671051
26.17796135 0.6397728324 53.54512405
26.29887581 0.4735370576 61.89426804
26.16518211 -0.8024038076 49.84251785
26.5324707 -1.13379705 66.63919067
26.13386536 0.1647283733 54.17883301
26.30945396 -1.297866702 50.44773102
27.19873238 -2.849518538 46.37334061
26.30391121 -0.48478356 63.18539047
26.5213871 -1.79820931 50.3912468
26.76471138 -1.989004493 57.57412338
26.38388634 -0.8265812397 64.49243164
26.67441559 -2.134664536 49.03295135
27.0666008 -2.654793978 46.91437149
26.1789093 -0.3253519237 55.95229721
26.2410202 -0.4800452888 59.14730835
26.84199142 -1.990880609 62.01696396
26.40426064 -1.297764301 57.22637177
27.39039803 -2.865292072 52.70267868
27.54283714 -3.070275307 48.60042572
28.47811508 -3.689234495 45.48601532
27.38444328 -2.707942486 60.61138916
27.5585556 -3.057612658 49.7906723
27.52112198 2.883560896 56.97602081
26.93798065 2.482559919 48.36365128
26.90766525 1.984915257 64.88896179
26.39609909 1.618279099 47.27967072
26.51581001 1.306134939 63.46935272
26.7349472 2.139050007 52.21632767
26.65892601 1.959856272 52.88879395
26.17613983 0.4813129604 53.79436493
26.21198654 0.3202194571 57.62834167
26.56799698 1.297755003 65.935112
27.08342171 2.506336689 53.98611832
26.25782585 -0.3166390657 58.26647949
26.36582375 0.8103982806 62.63145447
26.64329147 2.11847806 46.80367661
