# .PCD v0.7 - Point Cloud Data file format
VERSION 0.7
FIELDS x y z
SIZE 4 4 4
TYPE F F F
COUNT 1 1 1
WIDTH 1316
HEIGHT 1
VIEWPOINT 0 0 0 1 0 0 0
POINTS 1316
DATA ascii
21.70919228 0.005350644734 166.850322
21.55470276 -0.1003137493 173.3924797
22.04410553 1.15181268 159.7378621
21.38299942 1.720425392 173.934444
20.99585724 3.49591782 157.3272377
20.52266693 -0.1111352 197.9735594
20.48505592 -0.2900063951 177.7165562
19.86391068 1.264088314 164.8394948
20.27786255 1.71528582 170.3475848
19.68899727 0.6924618962 154.6794258
18.18361473 0.4743484324 137.8541936
19.94272995 -10.84948203 135.2587491
20.09018707 -12.79553811 131.9758193
21.19782257 -0.570224212 159.4741703
20.43733025 -0.2745514201 178.7287528
21.69167137 -1.315579084 137.738262
20.42998886 -18.36114441 128.4320062
21.04377937 -40.06628998 118.3168241
21.02157402 -35.45419346 121.4082826
21.69486237 -33.7889941 120.9178131
21.77396774 -27.31979265 125.2157093
21.94168663 -11.21958988 134.8974583
21.43913269 -18.24237798 131.8822835
21.44281769 -0.5116483336 153.5061077
22.82229042 -0.4974338554 137.7766385
22.10351372 -7.598335832 135.8783639
21.36990356 -12.15560001 135.452999
19.71425629 0.2730759307 148.0071968
19.60550308 -0.7893364929 142.7751377
20.17544365 -0.3988017038 148.6833754
19.61299515 10.63542785 134.2719672
20.83529472 35.29398533 118.8594966
21.33789635 51.93473505 111.7229836
21.71388817 34.35250117 121.0157854
21.599226 20.6298256 127.3121725
21.99030304 12.18444897 132.3729191
21.81029129 6.263778431 136.0249383
20.73436356 -8.052419681 134.1760046
15.94091129 0.9780271352 139.3182981
20.10318756 0.1203028168 177.4095304
21.73197556 -16.58097597 132.500778
21.89184189 24.48813678 125.9386137
23.999403 -1.740270088 139.7784574
22.15156174 0.5099214656 157.9689329
20.34361076 -1.066128201 149.2317808
21.22795105 -16.17346904 133.9193571
21.81096077 -27.57998605 124.5834043
21.92928123 -21.42705298 128.104141
22.94022369 -2.486463787 140.082916
21.66231537 -14.50886296 133.9284818
21.42797661 -43.97030975 114.8984373
20.3681469 -38.88732474 117.1616972
20.53822517 -31.60331295 123.5912473
20.61236 -24.82995362 128.2939146
19.84664536 -15.61293173 131.076309
19.8750782 11.68838552 131.872833
19.74180031 3.318266684 138.4030607
17.32059669 1.582832257 141.5991361
19.9443531 3.480435425 138.8123014
20.8890686 9.222272418 136.132263
18.78702736 2.331374444 139.139343
20.64536858 50.58678487 110.8312452
20.415308 48.69961217 112.5149306
21.05347061 49.05859425 111.3124616
21.0682869 39.33573201 116.170593
21.60848236 30.75653893 122.9279707
21.73648071 32.5089269 121.3640059
22.62127876 2.546398392 139.0066068
22.94739342 1.069869418 137.7360532
21.45508003 14.71697861 129.1971739
21.9243927 24.38053757 125.24205
21.51426506 4.995502009 135.9645689
20.36800957 -6.827355791 135.1538999
20.94564629 -30.67451237 121.4319381
20.36774063 -18.63091612 131.8382719
16.42927551 0.09420485139 141.750427
19.76534653 -0.1177083923 159.8397063
20.30467987 -0.8662196886 190.0094145
21.37883759 -0.8387506948 195.7673796
21.67621231 -0.690286337 175.57637
22.03450966 0.0449422065 160.6025236
21.91435242 0.89825107 152.0090635
21.87086296 0.6906852748 148.8038786
20.56342506 18.75204904 126.6634367
20.28960609 -13.9840451 133.9411062
20.67589951 -48.76964708 109.9238052
21.26912689 1.299387161 182.1485326
21.06268692 -0.6441357867 166.7032437
21.35002899 -9.160587348 135.7626881
21.8180809 -18.12608272 128.561035
22.06451797 -9.069142049 133.927054
22.00234413 17.59437602 128.8426612
21.4152298 29.28644608 123.9545608
22.00671959 1.620358002 155.9943282
21.28439903 6.826591075 134.6902164
21.27467728 1.562772513 177.6439806
21.09339333 44.64989893 113.4787557
20.4187088 39.91101542 116.4006711
20.20426941 32.52556215 121.73974
15.5379982 -0.05771067164 140.4857894
17.90982819 2.305051776 138.539849
20.34789658 11.27661458 134.6900996
19.6494751 10.12198979 134.150784
19.67008209 1.187517525 159.1308401
20.88355637 49.92843674 112.1071326
20.72240067 -0.6190254379 169.9898295
20.51641655 1.085797184 184.4208861
20.53774071 -0.2106882832 200.2184058
20.64493561 0.4958945149 198.4071659
21.64120102 0.5799324654 182.3113821
21.26569939 10.18658299 135.3495741
22.08608246 1.207511397 160.8958925
21.88042641 1.522491762 152.4033089
21.98330688 0.2389515882 155.0827339
22.78200722 -1.672485413 139.1392589
21.82579422 -0.1583941498 144.0439063
22.11845589 1.151875384 153.0390709
20.02483559 3.232860587 140.039679
21.02506256 15.40332851 132.380556
20.52726936 2.833830663 159.0916285
20.12992859 11.45397214 134.4168429
17.24727249 0.7700718596 141.9866898
19.85984993 -22.03014839 126.8431859
20.77690125 -51.58759398 109.3524538
21.13328934 -39.81328048 117.1723064
21.62174606 -23.37298458 127.269663
21.16541862 -15.08087569 134.0280671
22.07950783 -8.670904947 135.1637705
19.60140038 -7.712750025 135.9763653
20.41114807 -35.50984899 120.6871412
20.35823441 -1.126479319 157.3222654
21.0389061 1.364282203 175.9907835
21.17697716 46.56308801 112.990669
17.41552734 2.051815611 139.5878599
22.19049454 0.7067905778 155.0728452
21.78469658 -0.5031989887 171.4124754
22.05171776 -7.514020754 136.3040617
20.93408203 29.23669108 120.9927976
20.93787003 -35.84442075 121.4559171
22.07538605 -10.75029499 133.8487241
21.8249588 6.835898482 135.1851499
21.1354351 -24.28991253 128.7555082
21.07554817 -41.4144472 117.4102857
20.67939758 -32.86557332 123.071739
19.86612701 -21.8408521 128.4783933
20.3057785 -13.60999903 134.7826078
18.58781815 -2.494065933 139.6545561
20.0005722 -23.8569254 126.2234953
20.16030693 -11.60099347 132.5778501
20.12462997 0.9798323926 146.1121061
19.81848907 21.39358957 126.7918775
20.32107735 23.74654641 127.2885969
19.97721863 10.87185636 134.69577
20.41875458 49.71152942 111.8849333
21.4206562 48.91327732 112.2977827
21.32481003 -4.674917548 136.3587339
21.16574669 25.70310842 123.1118849
20.99054337 35.32766783 118.037338
21.88574409 24.90502415 125.6194914
21.05998802 11.83961642 129.9368742
22.04102135 5.6593696 137.1036375
20.97878075 -4.371210464 136.5709684
22.15216064 10.91853392 133.0253141
19.94005585 -6.691961207 135.6761778
20.71926117 -25.01594487 124.6777723
19.06873703 -0.3338131373 137.5679777
19.75306892 3.630380968 137.6655119
19.87413216 0.6061303069 143.2615049
19.88160896 0.1173065406 168.7131651
20.91439438 -0.6126337095 204.8270567
21.52554893 -0.05708684263 182.9466703
21.71785164 -0.7345569272 167.6313627
22.04505348 -0.2608164309 154.4063871
22.01163101 -0.4172124218 146.6564787
19.6245594 1.422031604 142.465698
20.41725349 2.781086884 156.239258
19.96487808 -27.40823047 123.4506865
21.28412247 -18.61733678 131.3880168
21.73284531 0.2480168485 176.6549384
21.38640404 -0.7430632566 149.5589327
21.78565979 -19.0072806 129.8782997
21.12283707 0.9856195782 136.867104
20.91631508 13.1859286 128.7330159
21.73593903 22.86048349 127.3030233
21.66886139 30.55583535 121.6422211
21.76286697 19.10978636 127.4898967
21.25087547 19.13535899 126.385545
21.01929665 35.59520322 117.8241803
20.69419861 53.89092963 108.9376344
20.03980255 26.64520976 123.7408949
19.97284698 18.43528229 127.9281
15.67651081 0.9825520583 139.1446949
20.60983467 11.09270335 130.9116278
20.38987923 9.579048557 132.6536246
19.60461426 1.240470302 155.9155272
20.78915787 -5.325114583 138.0549708
20.23476601 -0.2713614446 168.2808006
20.24131393 -0.1307464043 178.9274612
20.91106987 7.836031327 136.7927972
20.75754166 0.7820077121 197.5321785
21.34723091 -0.2548868745 187.877098
20.68453217 46.58391251 114.0062653
21.653162 0.2631204502 181.7903688
21.7636261 -0.1618444533 158.3760848
21.95866776 1.727688862 156.2308195
21.61959267 2.171450726 156.9592412
22.84591675 0.3914930688 142.6537907
20.8650856 6.471105893 137.550228
22.06011963 1.079048709 151.5800358
19.90920639 1.784186686 158.140775
20.43240547 1.555039134 146.0984916
15.52802181 0.2939366932 140.7337129
16.31856918 1.147662227 138.4569213
19.73896217 -8.948291093 135.097739
20.16860771 -37.54559129 117.2557841
21.33584785 -49.26357474 109.9447796
21.40995598 -32.22042423 119.8129334
21.38788605 -21.91915159 125.717554
21.87702179 -11.21617347 134.4604579
22.56136131 -2.070464502 138.4965785
20.8668499 -0.8045202899 154.3593492
17.8238163 0.9591044783 138.1018659
20.43647766 44.77051276 115.1347736
21.84383011 -15.81883251 132.829499
21.67137146 -22.21562984 126.6839114
22.06069565 -2.666372715 138.4795818
22.07761574 17.27645503 130.4437223
20.8518734 5.849354732 138.5194766
22.09288597 1.419381622 155.5437121
21.73196793 0.7414885759 176.5825491
21.82688141 1.043464013 170.3708447
21.27646255 1.60495857 144.6272868
21.89046478 -13.93116051 133.7967356
21.99919891 0.8603571466 163.1158587
20.70295525 -0.283580085 194.9869183
19.95880508 1.968609739 155.5897297
20.12238693 0.06621421691 169.843558
20.85900307 2.783816253 170.0597228
20.69008636 -4.546284081 138.916534
19.88798904 1.588743629 152.6726271
20.83913803 2.867016755 137.4398531
19.77868271 -2.610243068 138.3230476
20.51384926 -27.09191503 126.4069441
20.30140305 -38.43511698 118.4055414
20.8927021 -0.6074764142 145.9322
20.68972015 -50.76687625 110.993024
21.06456566 -36.76139079 117.907929
21.49127197 -44.45269589 114.0700234
21.5113945 -28.88183568 122.7235808
21.33816528 -27.8160603 125.6688467
21.33348465 -0.4373323276 164.414627
21.42954254 -18.69593205 131.611231
20.99772835 -0.6167253348 148.393933
21.95997238 -4.879080035 136.9715843
22.0684948 -12.94561477 133.9283115
20.57659912 -5.149950033 138.5580877
20.76179504 -2.164093049 141.8968885
20.07616234 -15.11907208 133.3597264
19.94350433 1.263469453 146.5918711
20.24798203 15.51917332 132.7561307
20.57559395 48.06962124 113.2812785
21.23315048 46.98840815 114.9233941
21.63377762 29.37169907 124.5514111
21.47091484 14.80382658 129.847253
22.17272186 10.45336512 134.1438503
21.79069901 7.724712594 135.3819495
20.8334198 1.824615059 182.6314198
20.62635803 -20.60711277 130.2958969
20.73823929 -51.95140554 109.0262951
21.24758911 0.02407105096 203.0662465
20.9032917 3.224858974 161.166835
21.65478706 -4.135246771 138.4249675
21.96461105 -21.78302337 127.2199016
20.20629692 5.889242593 135.4284366
21.82898903 15.78515698 129.2811911
21.67889977 34.68138465 119.9268581
23.59391975 -1.472112826 140.3510416
20.48088074 -2.075013328 141.5186175
21.81846237 23.46005626 125.5260684
21.251297 39.57762791 116.3331108
20.06151772 31.55796623 121.4622961
19.38289642 2.370665266 141.6297249
15.94715786 1.190879263 140.9811272
19.75842476 0.1378335953 144.8074666
19.64342499 10.73350326 133.6459022
19.77641296 0.1558246374 143.0031424
20.33104706 -0.6108116497 145.224489
20.78773117 3.382943997 156.9624055
20.23591232 -0.1239759875 179.1396879
19.91195107 1.278588931 165.8833782
20.59260941 0.09088139091 202.4532434
21.19643593 36.32936148 120.0138695
21.18022156 0.6519320224 194.4812006
21.65621185 0.07949564286 175.8434475
22.95083809 2.432845599 141.6791302
22.04294968 4.310641208 137.6522176
22.1436367 1.470472158 156.5243239
21.13529396 -0.735844414 153.2166871
22.87561035 -0.7240520342 141.8961825
22.13335037 0.7564834599 155.0496544
21.44768143 7.248918987 136.9544508
20.09428787 1.786855949 142.4172491
20.30612373 3.675998222 139.0195483
19.79738426 1.059364645 150.105432
20.20451546 6.983610433 136.9222183
20.01431274 -23.15508491 125.6478345
20.69612694 -54.97574684 106.7690331
21.51212311 -41.62060882 115.1194635
21.85462189 -26.98190504 124.0224194
22.02650452 -17.00649501 129.7864032
21.93796539 -6.14784137 135.5245312
19.77638435 -9.044219862 135.1303173
20.65199471 -0.407920376 175.1156554
20.63490486 25.37154868 123.998558
22.05154419 18.63016036 129.4652279
21.68280411 0.4923569717 178.4012085
21.82791519 -20.35725214 129.6605134
21.98651123 3.438639709 139.4594437
21.71944809 12.630939 134.2847513
21.58652115 1.812564315 143.1785515
21.85622787 1.07368426 168.4373631
21.72473907 1.566372403 166.7962782
21.52512932 -0.3198337555 158.8066933
21.16467667 2.119647168 174.7745062
21.2180233 0.9345508127 191.2148095
20.63053131 -19.58795422 131.7022355
20.2121067 1.041945752 179.2254996
20.59001732 2.611319694 166.3386476
19.80468559 0.5156924855 160.0320656
20.42144394 -0.5362577183 144.3713502
19.82977104 -8.277073312 136.1574679
19.77757072 -5.106980276 137.6600711
19.64124489 -10.78725014 134.0310887
20.18361282 -8.517163438 134.1643798
20.40579987 -30.26435494 121.7878954
20.27927971 -19.53417438 130.7648825
19.99808884 -28.01276978 124.7324481
21.02830315 -54.85312405 108.5012966
21.26590157 -52.75512301 109.0553224
21.5532856 -32.43074405 120.8191074
21.09006882 -32.95616218 120.0602409
21.70480728 -15.50869039 130.4679383
23.36369324 -1.454409074 140.8555286
20.92931747 -12.99455358 135.6610518
22.07752419 -9.406414604 134.6947082
22.08785439 -11.4310842 134.5272024
22.41122818 -0.3060625658 143.0627541
19.76419258 -0.415961534 143.1958595
19.88646507 -5.610627166 137.7024017
19.79933167 0.3442255766 156.8488458
19.66269302 1.527890105 137.8302873
20.5235424 25.09505789 124.3905421
21.24958801 52.23790052 111.355412
21.15063477 34.02014723 119.8590463
21.56528091 22.6508476 126.2800925
21.51434326 13.93933641 130.3807045
21.89531136 3.376069607 140.5008495
19.86836624 -22.36937516 127.2844077
20.36489868 19.6322809 129.8022306
20.1098423 0.3639346367 174.0680693
22.97544479 -1.436121737 137.8545378
21.44557571 35.11361366 119.0816267
23.97913933 -1.817138043 140.1825408
22.13098526 0.498152814 159.3272704
21.1794796 -6.346797777 137.963333
21.86084747 -14.70528538 133.495468
21.69797325 -25.88694888 124.7237777
22.00365448 -7.970076833 136.183792
21.47563362 25.27809207 124.0797042
21.81992149 -14.70626681 133.5261839
21.55925369 -28.51981102 123.1459883
20.55320358 -51.19708961 110.5412138
20.32720757 20.78453509 126.2387694
19.96291924 -16.78847819 130.1678618
20.72769356 -5.200004509 138.4662168
19.7174263 -16.13838889 131.9192809
19.67734146 -13.76400214 132.634384
20.35023117 16.45335261 131.6803435
17.93001366 2.375225927 139.9186248
20.88137054 20.05171842 125.4502791
20.16080284 34.13478526 120.7772368
20.63135719 36.96004921 117.5348127
20.51754379 31.57011472 122.8753203
21.44471359 37.14407788 118.0717849
21.25193787 38.40916877 117.0716322
21.59868813 39.50143494 117.4992293
23.30986595 -0.9854176955 141.7009581
22.71932602 2.615551441 141.1435088
21.9579792 8.091178575 135.965103
22.19786644 12.66294343 131.7055052
22.07727623 16.36534567 130.1991118
21.27158928 9.645670563 132.3849791
19.84433746 -5.625010751 136.3585814
21.16855049 -8.986282759 133.7983091
16.79931641 -0.7180541726 138.2628477
20.30442619 2.299634842 137.5779418
20.10362816 -0.8412935769 156.3447722
20.26597977 -0.439557433 187.6953428
21.33486748 -0.3763949679 191.7163542
21.74928665 -0.5322959979 175.1499021
21.82415581 1.041696514 161.2594451
21.81242371 0.8754208469 150.6856536
21.80156136 0.785057912 146.828079
19.72794533 10.84185845 132.8276823
20.18494034 -8.824068581 133.4501375
20.58372879 -43.50086157 114.4339188
21.5748558 1.172414035 176.7198131
21.50698662 1.435252124 172.3583598
21.58590698 -16.55713232 131.943562
21.29449272 -23.77034613 127.780324
21.39485741 -2.541252423 137.0505857
22.00772858 19.14064734 128.2437177
21.61000824 25.86135805 123.8585831
21.0309124 26.38397603 122.3481728
22.00656319 7.021197148 135.4251016
21.66449356 19.75164789 126.9968353
21.36440086 30.80647794 120.9442784
20.18695641 36.5220474 119.1604053
20.36751556 20.78849381 125.9871285
19.91869736 24.30199531 125.8969116
20.15426254 19.31007159 127.1982825
19.61724091 -2.012272326 138.0855067
19.69129753 0.2339053165 150.0032403
19.74598503 0.03130716014 145.5658206
19.8129921 10.9632415 134.1476345
19.68985748 0.3750635892 147.0526008
20.81865692 2.444210049 172.7781366
20.06377983 0.1469503034 172.3691372
20.46721268 0.2763172926 195.9855364
21.38430595 2.042393256 166.4811837
21.24614143 -0.2670261215 197.2424154
21.66519356 -0.01290125132 173.005948
21.89208984 0.5298298218 168.9434888
21.17069244 2.620507362 164.9690269
22.94659042 -0.6902709195 142.2117181
21.86639404 -3.028126014 138.6974033
21.58276176 2.248280349 154.3261606
20.71012497 2.258194955 142.2149634
19.81414986 10.48007074 134.5100844
19.83973694 18.62338539 129.2421807
20.4017086 2.484812786 153.5391856
19.9132843 16.77030603 128.9016373
20.05470657 -16.35376935 131.8402894
20.66410637 -47.61017127 110.623443
21.13721466 -40.81772781 116.4635052
20.99879265 -27.20448852 126.0743803
22.06402969 -17.1576172 130.0481773
21.61824226 -7.049758501 136.7410171
20.01195717 -7.843802888 136.2637729
20.43035507 -19.13501045 131.5001559
20.8669281 18.65927284 126.8059824
21.36250687 46.83419842 114.860505
21.24705887 -39.68803 117.8256134
21.07612228 -20.62717447 131.0861232
17.53097153 0.100441971 138.1224482
21.67077255 32.67214325 122.5110985
18.86390495 1.682791625 142.5568532
21.63723755 1.690594444 166.2516731
21.40582275 -0.1456807767 183.8960565
22.01254654 -6.379144051 136.0820932
21.47421074 1.44606035 175.4223506
21.6215992 0.4461018052 183.5583374
21.05560112 0.9922793195 194.189571
20.28671074 -18.76791747 131.332177
19.66984749 1.016676119 154.5218817
20.18911171 -0.194728123 145.6741868
15.67353725 -0.5807500581 140.701317
19.70615959 1.37182667 154.9725003
19.66287422 -13.28222094 132.9783965
19.71076584 3.585555441 138.4397866
19.98589706 -23.34792422 126.4210554
20.20902634 -0.2276705769 165.3586144
19.9739933 -28.87665038 123.9046368
20.59202385 -12.75636177 131.5332847
21.03120422 -45.95325054 114.3990277
21.38216591 -36.73681744 119.6923141
21.13813972 -33.55111429 122.43129
21.48601532 -12.59832963 135.2145056
21.2430954 -0.51418232 162.8158527
22.11542511 -11.02127248 133.7019387
21.50671196 -0.3479191256 158.8402488
21.9187088 1.036414283 144.558114
21.34372902 -16.5146868 133.3105706
19.73505402 0.6028219782 155.9413873
20.79437637 -0.6148165496 157.9766627
20.29169655 -3.548525528 139.2839101
16.82846642 0.8227793823 142.2260513
20.28669357 2.601989201 156.7481629
20.34344673 26.7506408 126.3567756
20.47323036 52.09768397 111.6007866
21.49617958 37.22131326 120.2108351
21.62985039 27.09791739 125.9351135
22.13742828 14.96812875 131.3383925
22.06641006 7.421316186 136.4576341
19.85438156 3.907406968 137.6203578
20.06692696 21.6040293 128.2337232
20.34780693 0.3628940278 179.0704541
21.99450684 -17.18859036 131.4167218
21.1268425 40.75631008 115.7279706
21.33417892 11.31245297 134.9186139
21.08009338 2.320834282 161.3511243
21.40945816 -1.019308557 143.5759168
16.94176483 -2.003939313 140.0062909
21.79556656 -23.68724764 126.245503
21.33922005 -22.63767947 126.179173
21.57597923 -14.61669196 134.1194959
21.73511505 -27.56065879 124.0936933
20.94378281 -42.49751606 117.0356336
20.22772217 -39.06965957 117.4328962
20.80788612 -37.49421629 120.3257566
19.84134102 -22.1530012 128.172276
19.9248848 -19.03081258 130.5631299
19.80624008 -2.996221117 138.9645124
19.77974129 6.012413694 135.981587
19.73458481 7.077071377 136.2205396
19.63315201 9.951880056 134.2888379
19.98911285 29.06528537 123.3128858
20.53965187 29.18167173 121.5644345
20.37241554 35.74486979 118.6941648
20.46609306 51.41131652 110.7956205
21.17061806 43.61892761 114.2818494
21.44415665 41.99749053 115.6075864
21.60161209 38.49137173 117.8207441
21.69501686 26.46727053 125.2592893
22.14694405 13.6898342 131.4861646
21.10696983 17.22782008 127.2032209
21.93667412 19.53331244 128.8351026
22.12899399 13.97901221 131.6220594
21.46767807 12.23228897 130.5094342
20.25366402 -6.340814402 135.5181775
20.0238781 9.530744202 133.1733136
20.36327362 14.28287668 129.3718915
17.68605232 -2.281311375 139.7354932
19.67994499 0.4729780389 151.9083448
19.89609528 -0.1482559317 170.0740552
21.26379776 -1.27549065 199.8272748
21.54370308 -0.9258300639 180.1040693
21.87541771 -0.403395332 164.1858258
22.18169212 0.3604382687 153.8833356
21.3896122 1.106054328 146.6721235
19.72434616 -7.427886786 136.1290021
19.7074585 3.834674688 138.1919832
20.70187569 32.6255367 120.385574
22.09188843 -4.380950071 137.9630497
21.69123268 -34.30452002 120.6787672
20.98021317 2.22434762 137.5555555
21.46024513 20.78143177 126.9651597
23.32486343 2.04714583 141.1541504
21.02153969 2.838835875 153.792518
21.89101028 0.50535064 167.2423498
21.82390976 0.3074880855 166.1358326
20.95274544 3.408803345 141.0120306
21.27015877 -2.042436513 142.1992956
21.09451866 1.099547936 192.3581387
20.57327461 0.9458513941 190.4264315
20.18686485 0.9073499332 180.5117226
20.55259514 3.024198807 158.161855
19.95543671 0.1231843126 159.5620469
19.97013474 -14.98232991 133.2196346
19.85962296 -6.752672193 135.6662025
19.75120735 0.07398459337 150.7521903
20.02232361 1.641070158 151.9392407
20.10819817 -29.96604995 122.4976
20.83398247 -26.13713023 127.7240725
20.68327904 -16.24891948 133.9944345
20.46482849 -51.33217872 109.9476702
21.48031998 -44.64335092 114.0336548
21.5144062 -42.60324927 115.3477169
21.54275322 -31.20373928 121.452553
21.50517273 -0.4701142836 151.03128
22.84910583 -0.585586523 137.7318196
21.97540855 0.1414435917 144.1673727
21.46485519 -16.10478739 133.1780386
21.3056736 -3.711174223 137.0310031
21.75078201 -12.48246173 134.6634861
20.77306175 -9.285095357 136.3350015
20.39377403 -3.463467758 139.4098721
17.14499283 -0.7012133845 142.202599
16.47875977 1.253895661 138.89336
20.63733482 16.19595364 128.391653
20.30283546 34.28864063 120.4415695
21.12378502 42.89012917 115.5724811
21.59286499 32.6026626 122.7159501
21.78755188 21.1403127 129.0823653
22.05049515 11.195836 133.1911258
22.03692436 7.642332151 136.2040924
20.99627686 -50.67189359 110.085835
19.73744011 -0.2524392495 154.8724714
20.54485703 -1.272141209 201.3664136
22.08722687 15.48608734 130.4504743
21.84487724 10.85197496 132.458653
16.15229607 0.6542774519 141.4334302
21.84981918 -0.4280195517 167.583714
22.10653305 -0.5120259884 143.2617688
21.82388115 -17.33840317 129.862248
21.34490013 -31.55713792 121.1448026
21.52989006 -27.11330557 125.9457898
23.24180222 -1.604540698 141.1588636
21.28920364 -35.16555338 121.1023679
21.39946938 -42.29752297 116.1147504
20.67098236 -31.7667193 123.7908216
19.97426987 -27.94184062 124.3303266
20.36139488 -22.88336892 126.132771
19.75515556 14.6350055 131.5865827
20.37072945 1.110248255 145.131764
20.19045258 -7.246151878 135.009892
20.87832451 10.08069371 135.6434827
20.2324028 23.63076638 125.0082746
19.93404007 25.56972365 125.3726087
20.27241135 19.49601036 129.7713971
20.43997002 45.44795282 114.558125
20.84228134 55.41217108 108.0320783
21.05591965 48.19693425 111.7543683
22.12465858 15.65455601 129.9356122
21.82825089 17.7695356 128.3980909
22.05949402 18.20056031 128.8112836
21.77808762 15.71206339 131.6369519
21.80813217 0.7233976522 144.5320325
22.03979492 -4.329159733 137.976872
21.75846863 19.11359461 129.6497388
21.98638725 -2.938275138 138.0902906
20.67504883 3.042386785 136.9690747
20.77880287 1.714563497 137.4421125
15.60135555 0.6452586056 139.4513593
19.74094582 3.543260603 138.252049
20.24523544 1.537278798 159.8376508
20.82150459 -0.6468567822 203.39362
21.60899925 -0.4738893364 184.3126416
21.23821449 1.21694177 172.8695264
21.87327957 1.296810165 156.1005597
21.93535423 -0.556847298 146.7727094
19.5615921 0.272286983 149.1486707
20.65135956 54.4654521 109.3343547
19.96812248 -16.47338241 131.5997723
21.67527771 -21.70907744 126.1785159
21.07593155 1.974417077 177.2629385
21.78672218 1.667233705 153.0684941
20.99952888 -2.699891649 140.2699063
20.09026909 -20.31037505 127.0353723
18.67871094 1.236017835 137.4309215
21.54451942 17.98930323 127.6707042
21.33673668 33.20910296 119.6247132
22.39813614 2.211103549 137.7449531
21.77078056 1.559025854 164.414073
21.44622993 42.05664399 115.5100394
21.21688461 55.06387588 108.5892667
20.71142197 35.8082793 117.7772877
19.97647476 14.42484267 129.9371824
20.44022179 9.518394561 132.6883906
16.03804588 1.432785966 139.0198577
19.86923027 21.29314754 127.758184
20.26892853 10.99970463 134.7916621
19.47513008 -1.982129274 141.34537
20.41872025 2.497909802 160.1967071
21.39680672 -3.22570238 139.1306494
20.2689724 -0.06093332096 183.8968198
19.76288223 1.209278202 163.8926107
21.58730125 1.208467313 174.169772
21.50628471 -0.05665885488 184.2721524
21.62672806 0.1520922985 182.4854748
20.95944405 28.43133121 124.7059344
21.82514763 0.7987557789 172.5213504
21.93269539 -0.138457955 147.3895864
23.00639915 -0.7186329095 141.5096827
21.89252853 0.152206906 156.2774365
22.13718987 0.92393802 156.7643978
21.25539207 6.143340278 137.6609565
20.31195641 1.686651267 142.7800707
20.40147591 2.647285498 157.7134934
19.84446526 0.2984712011 158.6527919
19.86027718 -5.236834954 137.3678478
20.48815346 -23.76191018 127.8067889
21.32375717 -50.8209932 109.0231283
21.62151337 -37.13897088 117.8233395
21.40750313 -25.27404203 126.3881279
21.27322197 -14.91250141 133.9430001
22.04581261 -3.977915591 137.6834599
20.15483093 -0.5109579416 152.0645603
19.93350601 -22.27689681 127.3198055
20.61021042 0.8815384574 179.7552838
21.10015869 -34.02518405 122.2946209
21.21955109 22.11901921 125.0075955
21.41950989 7.342604292 137.1039013
21.92961884 0.7867979872 161.5509533
23.37804794 -1.686172597 140.8896526
21.67479324 -14.39157806 134.0038036
21.84440613 -23.83802157 126.3174481
21.27580261 -24.04401149 128.6161999
21.59964752 -17.47797904 129.3654369
21.62171936 -13.94509249 131.3480267
21.1473999 -50.99510512 110.8848766
20.82806778 -53.15767609 109.8769268
20.82415199 -29.95015272 125.3163342
19.69573975 -12.66651949 133.0386089
20.55551529 11.83132233 130.2681164
20.47538567 -6.352645233 135.3477215
16.26164818 1.173117662 139.0506024
20.66152191 10.7033221 135.2389111
18.05897713 0.3030220542 137.6717114
19.82281494 21.88683376 127.2035031
20.52787971 24.34937538 123.9491009
19.98599243 28.22783343 123.8860745
20.74780464 48.79217978 111.4065212
21.3187027 49.8622634 111.4690212
21.51228523 26.06736049 125.8396954
21.49281693 41.62471446 115.8845181
21.87252045 20.65328848 128.3122448
21.33439445 13.25976813 133.6474041
22.12738991 15.74920244 129.9214062
21.08699989 1.175730635 143.7505688
22.08445358 10.90207349 132.9021954
20.98988152 13.89412654 128.6463665
22.70975685 0.271344808 137.424519
19.99419975 -4.980348481 136.5241284
19.80838394 22.21666011 126.6809353
15.44328976 0.3558997754 139.8164715
20.03124809 -0.8535079343 153.6372265
20.23741722 -0.7525253879 187.1613964
21.26817131 -1.269202843 194.1327252
21.62539673 -0.8500263936 173.6532635
21.36499596 1.906228375 160.5727886
22.17227554 0.5780300926 155.4257549
21.57147408 1.027761129 148.3721203
20.67584419 54.35073537 109.5217861
15.62237072 -0.08636831203 138.8734613
20.58363724 -42.79156823 114.9861179
22.0038681 17.68787911 129.6924507
21.88017654 19.73689712 128.6125636
21.8255825 -18.89322967 129.9787843
21.84604645 -22.4242463 127.5546149
20.29904556 6.226313537 135.16037
21.94781876 9.516264661 133.5863667
21.22101974 29.21839306 121.3804385
21.94678879 19.46056695 127.6898143
21.6589241 4.486665897 138.3595329
20.93214989 33.10987353 118.8682086
21.39510536 48.04961161 112.4865894
20.59001923 43.85855124 114.1101903
20.72330093 2.522038195 168.5998313
19.79242706 17.24306063 128.9343955
20.28315353 12.86758575 130.1092537
20.56957817 3.054720664 155.3253914
19.87467575 4.722177987 137.9035794
16.18359947 -0.8005467878 140.9441033
20.39719963 41.88958146 116.4643938
20.31717682 -0.3853789452 166.4019981
20.45839691 2.52532124 161.3343029
17.18280411 2.334715282 140.7635479
20.83244324 2.187784488 177.2357825
20.38723755 15.71740787 131.9918204
21.2691021 0.5698960929 193.0850902
21.34040451 -0.3900791511 178.4067821
21.81636238 0.6064433526 172.4787741
22.01135635 7.874041302 134.8579968
22.07490349 0.7541524697 157.962406
21.83726311 0.1034463286 162.2166593
22.20222855 1.332275352 155.3449484
21.79916763 1.171262579 142.7916467
21.23444176 8.875728603 136.0994639
20.25032997 15.91230607 131.7350878
15.87241268 0.2945308499 138.6025186
20.03691101 4.634146733 136.6043938
20.01955032 -19.261796 129.8023101
20.71047783 -46.09273363 112.9604959
21.42514038 -45.47829635 112.6128423
20.89892387 -31.54317637 123.3152211
21.70012283 -19.61721057 129.6757188
22.06332207 -5.77781198 136.1200943
21.47628784 -7.718036706 136.4601847
20.38613701 -27.07724964 125.9961591
19.72483253 11.60480883 134.2725341
21.27993011 52.25113559 111.8467972
21.11255264 -44.6225786 114.9387129
21.66300774 -0.2457907171 147.3711442
22.92562485 -0.6551029596 137.8159118
21.54071999 23.40849345 128.1761916
21.32539749 2.472540166 142.5728702
21.98113632 0.8767941935 164.2193575
21.40173721 -0.05589218539 189.3138125
21.5053997 2.151817821 163.26602
21.08696747 -44.18314952 115.4936344
21.70464516 2.180546307 155.5739274
21.16570854 1.435048717 184.5046573
20.25030708 0.5131894426 186.727393
20.31944275 0.7172627315 187.6719685
20.51281738 2.11797632 171.041084
19.90088654 -18.88075042 130.5448868
19.76362038 3.451204817 138.2418135
19.75324821 -6.027657078 137.1356191
20.15882874 2.336308943 137.7232022
19.31996155 -1.022732591 138.0769552
20.49100304 -23.23097852 125.6382139
20.15467072 -34.91921677 120.4530702
20.52779198 -44.71147513 113.5580702
20.92673302 -34.51030411 122.2150387
21.69589806 -33.92691251 120.986199
21.64865685 -34.89959085 119.7167081
20.41281128 -2.24496908 141.6148561
22.08083916 -12.20523596 133.1623012
21.47037125 -17.78631838 132.0458759
21.9465065 -6.258539681 135.9898081
22.06170273 0.4546066938 146.6071563
21.73798561 -0.2867382447 148.3966872
20.01343727 -0.1931798459 147.3450509
20.12460327 -0.3496404395 153.4239984
20.6216011 -13.56190968 135.2863808
20.22710228 -0.4482242689 153.8869742
19.66524124 0.3692290027 150.6685368
20.83475304 25.80983843 123.4388671
20.48869896 53.41809824 111.0094848
21.43874359 40.13982066 118.6261288
21.82723999 26.05102823 126.0155557
21.07321739 13.55157232 129.5741454
21.95546341 8.185821531 135.1232574
20.87011719 9.3916331 133.3487167
19.99463272 0.1399269502 159.176327
19.89536667 19.48341373 128.2998883
21.80141449 9.977663716 135.8014495
21.59357452 -38.64504606 117.5352516
21.85456085 -11.37166417 132.8080091
21.92170334 1.730879232 159.0941074
21.06870461 11.53831545 135.3468324
20.77769089 2.432296136 152.5529243
21.92220116 0.4831871527 164.5266693
21.69511795 0.9792526793 176.8394932
22.09522057 0.3302888034 150.4449168
21.55853271 1.320856164 175.217774
21.27234268 1.440197877 181.7949325
20.21752167 0.2310262316 184.5435728
20.86329269 1.915524801 184.5416849
20.05393219 -0.06314723766 160.1930918
19.65098572 0.8367926409 152.8455224
19.45181465 -1.931431233 141.66297
19.605196 -13.64942576 133.4147209
20.59044838 -3.865730656 136.8277409
22.76465034 -0.1943873759 137.5444518
19.96266556 0.1668434869 161.7080246
19.83324814 -18.75853876 129.3175222
20.57210541 -41.86332525 115.0800165
19.70536613 -17.02584611 131.4902039
21.25649834 -54.15210506 108.2624801
21.62537956 -38.22833708 117.8236937
21.24920654 -38.27612315 117.1512802
21.04323196 -37.86089642 117.263266
22.08121109 -16.54626914 131.1408628
21.42815399 -0.535467267 147.0875647
21.69200134 -8.217355844 134.409493
22.80600166 -1.704794406 138.6939749
21.68135643 -0.3573324752 149.3618318
20.72299004 -10.24221134 136.0861172
20.15659904 -15.20299323 133.4087995
19.65113068 0.4363992634 151.3225529
16.46822739 0.6177546189 142.0426452
19.67932701 11.36203737 134.245825
20.87389946 30.60387122 121.0255938
21.26502419 54.90196746 110.2819377
21.27335167 35.09184668 119.6829368
22.02609634 21.21443859 127.7149203
22.12878609 10.899678 133.6502259
22.03100967 3.167021351 138.9006095
19.69614601 5.576964575 137.055802
20.79174232 -18.16675023 133.1557
20.38779831 -1.139529795 184.4986413
22.18532181 10.40021962 133.5825952
21.85785294 26.30792209 124.4199517
21.98711395 0.8977047262 153.2676232
21.43089485 1.314099148 166.1709893
17.24433708 -1.202930477 141.8587029
21.54022598 -14.06596025 134.4540704
21.8280201 -21.97759283 127.2687448
22.00259209 -14.28143437 133.3586725
21.42560768 -26.27965007 126.7326807
21.48815918 -3.213573285 139.5378564
21.34143066 -40.15753585 117.6477654
20.62681961 -39.67134885 118.412864
19.93912697 3.27653685 137.4075005
19.67281532 -12.47749074 133.8720391
15.62496567 -0.9162744646 140.3961023
20.13514519 -11.249368 132.7851709
19.66636086 -8.235830635 135.5473931
19.8375206 17.26419609 128.8213038
15.94368839 1.205194884 139.6159662
19.56122971 11.219835 132.9730829
19.69502068 0.8160088418 142.9560846
20.51705742 48.94651381 112.5435556
20.29419899 44.85532349 114.5074839
21.40176773 40.09464993 117.6464608
21.03666306 42.96654479 114.3097222
20.92072487 40.08817258 115.5407403
21.34642601 -2.439127758 137.6578668
21.78475571 8.997867271 135.7915949
21.49329948 11.15480967 131.2747033
22.04753304 8.125127471 135.7451318
22.23251724 2.433808728 138.4709772
21.51180649 16.01943746 128.7422784
19.66012192 12.2920348 131.8504022
20.25911903 4.503832544 136.2984002
19.68242645 16.63626642 129.5119317
20.1423912 10.37252204 132.1982416
19.66182327 -0.2554499567 152.9102471
20.3391819 -0.6343877424 190.7032464
21.05833626 0.1767813576 191.0538323
21.59817314 -0.8310036869 178.619201
22.11605263 0.3842675953 158.3336938
22.04001236 0.828317214 153.6629937
22.08000183 -0.1097471869 147.9537957
20.23906326 34.12649504 119.7442697
20.14925575 -10.73698879 132.3551843
20.27512169 -41.84779834 114.8176221
21.26620483 2.351815177 168.0891454
21.88687897 0.2208111247 164.4478617
21.11240578 -12.95032238 134.8740325
21.87382126 -20.61554225 128.7147306
21.59201431 -3.398031557 136.6838987
21.22047424 13.70900165 129.0408918
21.73469162 27.14335011 124.6289887
21.49971771 27.41406543 124.9361122
21.35438919 0.8624640032 136.8510739
21.23749161 39.86012285 116.146273
21.33309746 44.63807831 113.9982966
19.68124199 0.5951586874 155.1718483
20.1650238 19.65768246 126.9856738
19.9195652 20.97378674 127.9685658
20.46489906 18.16581815 127.0875724
19.7468071 0.1366649711 147.6220193
19.60402298 0.7742325831 153.2822766
19.77134323 -0.04249628629 149.2430655
19.88554001 1.311655973 164.7097234
20.58234787 2.070870589 172.6830097
17.79306602 -0.4370499539 142.0751647
19.99051666 1.296430843 167.5516001
20.77417564 0.9983591662 194.5141186
21.32058144 0.2533215359 196.9551204
21.77945709 1.422806527 165.821328
21.78622246 0.1755410252 169.7241022
21.87542534 0.5068414109 169.5828445
21.61543274 -0.2782822601 164.4622802
22.12312508 0.4976950845 149.2947924
21.9485302 8.707661639 135.5380006
22.06541634 7.337379722 135.7754427
20.33457565 1.587109663 142.7889134
21.0575695 1.819809592 150.6855785
21.49223137 2.262776456 142.2149986
20.42612648 6.296560659 137.551064
19.65706635 14.38302697 130.9693931
19.96486282 -15.87654439 131.9929959
20.61632919 -47.23166247 111.9183831
20.93678093 -43.22099472 115.2637864
21.87748337 -25.88066927 124.8112183
21.29965782 -16.50318304 132.7746547
22.03656006 -4.598978031 136.7329016
19.88490105 -8.592741412 135.5543859
20.18613815 -16.98778568 129.7466729
20.58837509 -1.275852533 167.539428
21.06371689 -0.2776031806 196.2441552
20.97303391 38.78618583 116.4335397
22.04866409 18.20118102 129.0684503
21.59972763 1.586507608 157.2283166
21.57497978 -0.9746965314 169.5574029
21.8754673 -7.180449822 136.9300683
21.85214043 -18.2326778 129.4250939
21.45065117 -44.95246524 114.0283959
21.68567848 17.0184515 128.5735467
21.76941872 -26.46418991 125.8588479
21.72595596 -30.89330704 122.9657968
21.07169914 -42.50103795 116.7427361
20.17702675 -34.36087836 120.9198907
19.76131058 -8.654011099 134.7718957
21.36091805 6.033384438 135.244735
19.6611557 14.44717278 131.2083123
15.52867508 -0.3130884634 139.3780969
20.19384003 11.36513098 131.4382165
19.75151825 -4.205411342 137.9020837
20.73994064 19.94592648 125.7590325
20.83652115 28.2859341 121.4269174
20.49436951 36.37878387 119.9919198
20.3677597 46.74515876 113.5823586
20.92444229 40.77563059 115.1843865
21.00546646 48.76102427 111.377006
21.62110138 34.10635723 119.8357232
21.75487328 5.832081617 137.6082299
22.20353889 2.874940311 139.9120019
22.08487892 17.09704176 129.6050408
22.02487373 17.88526707 129.5971215
22.00488281 15.88245741 130.9308618
20.95505905 0.4778253532 137.175155
20.90259933 -7.952122104 134.3504479
19.74189758 3.399841823 137.8600152
19.75973701 -10.33044281 135.1503442
19.963974 8.33396319 136.0839227
19.79110146 8.344649135 135.7762597
20.2045269 0.9964032116 166.9329522
21.03239059 -0.8250519012 204.7639306
21.25886726 -1.276313319 184.8569329
21.02947617 1.9619463 167.9184411
21.7628746 -0.7562878124 155.9906457
22.03343773 -0.1714875867 143.829223
18.07620239 0.979782683 142.2954858
20.17512512 33.95103534 119.879312
19.91493988 -26.07446428 124.6336669
21.42670059 -24.39709414 126.977217
21.5999527 1.0905523 176.0178876
22.10824585 0.2022681944 153.176207
22.15791512 -15.80628749 131.1662596
22.00618172 5.3914647 136.4351728
21.80196381 13.78931183 130.2234151
21.98706245 19.8475303 128.2134273
21.48308945 21.82294602 125.5747437
22.05195427 15.9981005 129.9433353
21.31352997 17.29571284 127.4553872
22.15829849 1.453067934 156.6635059
20.5766983 50.58913977 111.525549
20.57797813 37.14388886 117.4253605
19.75509453 13.21835063 131.1187821
20.8107338 18.72252064 126.1359086
15.83521652 -0.5203893604 140.6759336
20.12169266 -0.481896032 152.1719138
19.89843559 1.07556515 147.2175979
17.60693741 0.4686712911 142.1878973
20.02386475 0.01687934812 166.3278763
20.30269814 -0.5207888868 156.1656392
20.44207191 0.3218608166 194.9417839
20.44390869 0.002274118058 199.0489741
21.03715897 0.7932981441 197.6170823
21.04564476 0.7505775717 197.1518461
21.53198433 0.1549257609 188.4230473
21.23022652 -0.5882863315 168.3441632
21.27431679 -0.6301098142 162.275002
21.56599808 -0.3372966378 162.2998171
21.92900276 1.729613574 157.4165094
21.77105904 -2.185509164 141.2469259
21.62233734 3.177792108 140.8450804
20.74765587 1.671958742 149.4337289
17.72078133 2.582731274 139.1906362
17.31684685 2.09143691 138.5992614
15.97713852 -0.9498360586 139.9116699
19.97066498 -11.94465625 134.1726033
20.17901993 -28.44356257 122.2269033
21.26670074 -50.73102142 109.4111522
21.28754616 -30.52721414 123.1349659
21.13388062 -18.79834822 131.5378086
22.11739922 -12.3613065 132.6057801
22.8836441 -2.418698166 139.8489717
19.82905006 0.5735297596 164.5611783
19.71242523 6.803077794 136.7580446
20.85346794 38.51928817 117.2738586
21.37208557 -37.78537594 119.0802437
21.78819847 -25.07763365 125.4691932
23.76837921 1.513308545 141.7621859
21.6795578 18.39793316 128.5143546
21.89866638 10.71362295 135.1704983
21.42084885 2.501237178 160.5188909
21.87593269 0.8074483601 169.0786168
21.99757195 1.237563401 161.8963977
22.0850544 -3.801458816 138.0281438
21.29399872 1.373992186 182.0388269
21.33141708 0.8528191438 189.1525933
20.44549179 0.584118421 192.3079784
20.40898895 1.517714826 176.7227748
20.07979012 2.020678245 154.0390778
19.6545105 0.708285567 153.2689376
20.62574196 -0.5491545694 163.0045312
19.80101585 -6.675768329 135.8161425
20.17273331 1.429354656 146.9975717
19.9974556 -24.098532 125.9341968
20.64115143 -26.11452379 127.3746018
19.82610321 -0.02727085828 150.0091987
20.03371048 -31.76747142 121.6753433
20.09026146 -33.77603229 120.9544706
21.52399826 -39.04185294 117.1599125
21.18086433 -50.36664787 111.0670397
21.62635994 -36.03349195 119.0929432
21.95817757 -0.0370693569 151.4653718
21.53752899 -11.15677746 132.6395544
21.92926216 2.853739778 141.8354067
22.09157181 -10.04709858 135.0113122
22.12687492 -13.00497636 133.0679272
22.93394089 -2.013567729 140.0464318
20.50016022 -0.5869352719 146.5844177
20.34242439 -0.5466784834 151.5104067
20.7027607 -12.08607093 135.7005031
20.78474808 -12.2735992 135.705193
20.49380112 17.3524125 128.1557913
20.29419899 35.42346877 119.9467763
21.25043488 43.44800993 116.9350141
21.1408329 27.27319111 123.0681793
21.15996552 19.99064532 126.6133144
22.10903358 10.91565842 134.5314202
21.77848244 7.511846321 135.2468067
20.87059784 45.92996952 114.4302466
20.2534523 -11.43956196 134.9515633
20.58482742 -53.6832646 107.5240688
21.4369545 45.58222193 114.0062111
21.7868042 0.6706110863 174.3184897
20.76675224 -8.246611973 136.3510823
21.96535492 -20.69174713 127.5995597
22.91402817 0.8960594959 138.1074298
21.98679924 20.24000493 127.8642383
21.27661896 28.78098671 124.3587117
21.0209465 22.18645343 124.4801346
21.48465919 2.253599348 159.3264752
21.09801292 27.57445 121.8664784
21.42596054 38.49080853 118.4368488
20.31422615 43.91386232 114.7353113
19.99237251 26.61430333 123.9139314
20.43750954 16.91880104 127.7428308
20.39173698 15.1140855 128.7745432
19.71813202 0.6518711624 148.998638
20.00442314 10.66221285 132.2326054
19.80109215 1.381982023 153.1819859
19.77469635 0.678642259 162.4616381
16.85002899 -0.09094226706 141.774395
20.37404823 -0.0790879398 191.7364523
20.73366165 1.594985256 183.8139995
20.19659424 0.4906578914 184.2021076
20.9764595 1.569711387 186.3074975
21.11466408 -0.6048997091 170.380797
21.45888519 1.888412892 165.9875155
21.82262993 1.718508535 159.6068563
21.4283638 -0.5159668644 162.259369
21.50117493 25.83449237 125.8777628
21.87560272 0.1355285873 160.2770942
22.07546806 -0.05701370114 142.871238
21.51114845 5.190112471 138.0842183
20.34518242 7.973929308 136.5251709
19.69668198 14.43813886 130.6459093
20.02143288 1.783151545 152.8147157
19.83276939 -0.1074246349 148.9909315
20.79583549 -20.1673363 130.8955077
20.35313416 -44.31208829 113.0228177
21.02667046 -39.66797654 117.4980842
21.88977432 -25.80906675 124.9659469
21.86913109 -15.84108398 129.9692049
22.0438633 -7.218348834 135.1314797
19.46520042 -8.927293795 135.2766398
20.7304039 -32.71904049 123.1242539
19.84928894 17.70369718 130.7488838
21.40745544 27.72108559 125.8623879
21.54472351 -33.83602828 120.0603019
21.7983284 -17.48587384 131.5689921
19.7835865 0.4896844657 137.5612992
21.52747536 28.93049556 124.9922426
19.23673248 3.033607878 140.3307852
21.55648804 1.747349889 167.0745092
20.93879509 -0.5248880737 171.6514204
21.28507614 6.728058002 137.9457945
21.57398796 1.466961396 171.7548165
21.38256454 1.807809433 172.078505
20.98723602 -23.55127299 129.3876924
20.32076073 0.1548684217 188.8678862
20.47005653 1.585954456 145.5955317
16.58681488 1.854146807 141.3999591
19.74163818 -8.782889139 134.5968916
19.75261497 0.6335363082 145.9184291
15.94653893 -1.021647875 140.4264746
15.48680401 -0.08776551224 139.8893125
20.01648521 2.337155803 137.847792
20.56443787 -34.86799749 121.348959
20.87132263 -46.87401656 114.000213
20.28089905 -43.84661454 114.5199805
21.32512093 -0.2662083002 184.5621591
21.15168381 -47.97558418 112.7407861
21.4864521 -37.95375968 117.6181537
21.90170097 0.231862251 156.3512494
21.82172394 -24.65070351 125.7403655
21.68839455 -10.72882996 135.6211378
21.63606834 3.619650501 137.3808748
21.93087006 -5.841034559 136.3093986
22.98319054 -1.1201881 139.2162777
21.87174606 -6.671260667 137.1458798
19.63576889 0.9714403212 153.6389196
16.10597229 -0.6388006628 141.4956524
19.66027832 0.6057227603 149.2747348
16.27011871 2.041135432 140.3046741
20.02103233 31.48159802 122.5003287
21.1885128 52.4448806 111.1245882
21.47735596 36.54223197 120.65452
21.69445229 24.83148601 125.3966698
22.11462212 15.62734031 130.9664016
22.00347137 4.982250439 138.1196295
19.90468979 -10.23363537 135.3998604
19.72872353 -10.8779375 133.8728632
20.65806007 0.4980209553 185.1589654
22.0954361 8.304686335 135.1290125
21.69407463 34.67199692 120.2436747
20.23677254 6.817157569 137.3094019
21.99123955 0.6978679063 161.9387659
17.01979637 -2.059931274 140.4049982
20.98767662 -17.08686285 133.8065484
21.15019989 -25.18851303 127.9157175
21.58084488 -26.07413878 126.5352015
21.91001511 -18.65049194 130.6870264
21.9712429 -4.223429414 138.3356165
21.58780861 -31.30645017 122.9879907
20.68719101 -45.95244994 114.3418268
20.28068542 -25.6214449 126.9327005
20.49884796 3.733698598 136.5792383
20.67321587 35.63550931 118.0458063
16.50731087 -1.54521329 139.2984919
19.76270485 4.13349992 138.0392145
19.88471222 11.41586666 134.0784601
18.61823654 1.963129637 141.8760523
20.0513649 19.35464654 127.4557718
19.98669434 3.504269417 138.8681025
20.13014793 35.50660304 119.7310633
20.73528862 55.25583248 108.2684397
21.10255432 51.4092444 110.2882227
21.43697929 39.1004751 117.0304483
21.02986336 40.48023965 115.5359186
21.99836349 19.15732549 128.9059443
22.00172043 19.10119416 128.8027338
21.06855583 13.81816461 128.820083
20.52083206 -2.435891146 141.9290918
21.83168793 -1.687771463 142.6372065
22.83747101 2.15431866 138.591308
20.60100174 -21.46911832 126.7250361
20.19376755 13.29487205 130.2884211
19.69072914 -3.287479618 138.5554499
20.09556007 12.91460872 130.6319727
19.71930122 -0.1345573269 148.1387629
20.55259132 0.5959965341 181.3500971
21.39069176 -0.8528087734 195.9486231
21.59520912 -0.8038806979 179.4120478
21.94462204 0.9177141162 160.5940241
22.10984039 -0.3002868212 151.846023
21.52267075 -0.9912162035 147.482757
20.05277443 11.98390173 131.3851007
19.85628319 -7.529810991 136.8405832
20.56637383 -0.3893297503 193.9217753
21.72829056 11.45500882 131.6097941
21.0448761 29.26199288 121.1208262
23.62467384 -1.584134193 139.2477183
21.01849747 1.831625075 170.0056223
20.2351799 -2.50946005 141.6791605
22.10299683 -14.11608089 132.5660471
21.52031326 -25.7409807 124.4570994
21.49242592 -17.76537378 132.2521586
21.82987213 4.716335141 136.4641031
21.06168556 -20.9417082 131.1101908
21.60730553 -36.15633071 119.5762552
20.29536247 -39.28504234 117.8807291
20.36385918 -43.50434547 115.2034067
20.07733154 -13.83914814 134.1571879
19.89944649 -10.99876939 133.295936
20.50004768 -28.20121626 125.7158198
20.26194382 -5.152059668 138.2347483
17.69048691 2.146061982 139.2553782
19.8450737 23.96995487 125.6103281
19.78087997 4.121816496 137.2481302
20.47780609 36.28628867 118.250709
19.70793533 17.69261494 129.1521982
20.04042816 31.86658229 121.5783838
21.06791687 51.59129652 110.0924448
20.72393799 -35.45750866 118.7619623
21.66222572 35.69362967 119.6415323
21.02957535 29.72924747 120.8711695
22.93437767 -1.433506913 138.169578
21.98508644 11.70011647 133.749824
21.74320221 14.26103719 130.0656046
22.94566727 -1.653365822 138.4041666
23.52065086 0.2098107589 138.2275309
20.09357452 9.3246988 133.1744761
19.77527428 4.593136677 137.8486857
19.67870331 12.29210985 132.8848948
15.61078644 -0.8613638252 139.9082407
20.36260796 2.034240838 157.3019785
20.42980003 -1.17329024 190.5203013
21.24901199 0.05901264249 187.0363993
21.13225555 1.325369028 174.4281687
22.02487755 -0.007784883543 161.1930002
22.15134811 -0.004052542361 150.3230662
19.63345337 0.9568278157 149.0334086
20.51143646 2.513687977 163.1603915
20.1761322 -20.78864964 128.9905234
21.27108765 -51.5708701 108.8328638
21.15270233 0.9504288679 189.4466641
21.1437397 7.090733909 137.0340764
21.41894913 -5.130058522 138.0179128
21.86728096 -26.67512096 124.4032624
21.97518349 1.707668782 137.2511293
21.37833786 21.51231161 125.6188307
21.56776047 38.80615124 117.4649944
21.84514999 16.91664117 130.5510556
21.81689644 26.9883874 123.8849198
21.33291626 40.10683728 116.2349823
21.23406029 54.0804399 109.4483594
20.76573753 50.44355114 110.4517219
20.37135696 31.77625382 120.5546777
19.94125366 22.14874282 126.2170305
20.22109604 20.98999725 126.2056347
15.90638161 -0.7003485125 139.33658
20.07987022 -0.4468751193 144.9710982
20.51252365 -5.674395384 137.8082355
19.98745537 0.293837102 171.1209476
20.50834656 8.274583362 136.4328382
20.86337662 -0.4540110522 194.443816
20.25119972 -0.1497591793 179.3222927
21.04273415 0.382470706 203.1734081
21.1992054 0.2068897697 200.9567254
21.19153214 1.064302666 187.7365963
21.27775955 2.536272764 162.9495663
21.4452858 -0.6420954279 153.3208267
21.99300385 0.3474327598 159.0277204
22.11013222 0.5046042442 148.7553692
21.41444016 -0.5309362213 161.2322971
21.76422119 1.243103253 146.805994
20.45825005 11.07721171 134.8281773
20.32903481 1.572362416 149.7422922
17.68926239 1.747302262 138.0381035
15.52068043 -0.03399721629 140.5572425
20.17808914 13.31496016 133.2036261
20.49874687 -24.98113636 126.9606196
20.4986515 -49.8553307 109.5658996
21.24150276 -39.33574911 117.2076628
21.68235207 -24.0385128 124.8897457
21.67334747 -14.88553753 132.8975641
