# .PCD v0.7 - Point Cloud Data file format
VERSION 0.7
FIELDS x y z
SIZE 4 4 4
TYPE F F F
COUNT 1 1 1
WIDTH 1303
HEIGHT 1
VIEWPOINT 0 0 0 1 0 0 0
POINTS 1303
DATA ascii
32.03544424 0.2541713968 123.008728
35.54684255 -3.437484239 142.0538177
31.86660002 -1.8285856 127.3624039
32.31873129 -1.049798046 110.5201645
32.27791784 -0.06790844058 113.6282349
35.99706648 -2.729351495 141.8616638
12.36001966 -4.544935201 139.3643188
16.0531616 -4.536443447 139.5286865
17.59508894 1.330404784 136.1039581
20.89313124 -4.528936123 137.1589966
32.14552496 -1.049014424 123.5707016
32.21201322 -1.586681281 111.0066986
30.94264219 -3.077366089 116.4184647
33.2523422 -4.525730346 138.0179901
33.62879942 -4.548804735 141.0765839
35.82921408 -2.723754619 142.3995056
34.75663755 -3.912055467 144.090332
31.20159338 -3.008700823 110.6592712
35.38896559 -0.2644350872 142.0335236
34.044466 3.266848351 140.7936707
32.13041494 -0.5543825522 127.2098083
36.31867407 1.367721821 140.9323883
16.28531645 -4.547815775 138.6699371
21.39785765 -4.36566851 136.6844482
13.95451353 -4.531312202 143.5749359
27.39664076 -4.537275289 138.2281342
28.40548323 -3.472773527 111.8986053
20.63726805 -4.533016418 143.416214
24.27945707 -3.996736501 135.8081055
31.9865608 -4.52890942 143.9620056
31.83982656 -1.781997417 130.2098999
31.9336891 -1.450340961 130.2181091
32.17037008 0.1185967579 116.4254227
29.89346502 -3.4224591 122.90448
30.92134664 -2.875822757 129.6182098
31.80898092 -2.184452866 118.4708252
31.95498083 -1.928815459 119.5691223
30.51003454 -3.250568603 120.4312668
32.23200415 -0.9218090222 119.451973
31.52013777 -2.740959858 110.4829712
35.55994413 1.252894784 143.4672394
35.42459104 -3.268700575 142.7469482
13.0477104 -4.558206056 140.1829681
27.9598007 -3.211039518 115.011795
27.61928366 -4.528786157 140.1499634
30.0314636 -3.350629543 124.4732437
25.56741331 -4.569245552 140.2373962
31.14476202 -2.938719486 117.812973
31.38303182 -2.761641 116.7175369
29.43037413 -3.53311107 117.3335495
31.70979879 -2.305599188 117.7857819
32.02394102 -1.770995234 118.8540649
27.57803152 -2.820551132 122.5371323
35.49630926 -4.035215353 140.1644592
30.74457357 -4.550433372 143.6504211
31.92037962 -2.118026351 112.9718933
32.15609358 -1.459822212 116.2447357
27.85555837 -3.083003973 118.7659836
32.12635229 -0.5124522492 126.4147949
31.84589765 0.3259451642 134.5322571
31.13897322 -4.547871565 142.2007751
32.17663381 -4.507210468 144.1101074
35.46896742 -3.963873361 140.735733
36.08648489 0.2072033539 141.9256592
33.9769306 -2.899843429 135.6181946
31.8773937 0.7944426792 118.6986237
14.88898847 -4.364045833 137.3387146
21.57946394 -4.540191387 137.7391815
24.41539762 -4.539937948 141.8853455
28.63952444 -4.550506328 141.0325928
30.7044029 -3.055906509 126.6089859
33.05073736 -4.543753122 142.5440674
30.5541992 -4.561501239 142.8371887
33.72939108 -4.534496521 142.4018097
34.07064245 -4.53844807 142.3288727
30.33645819 -3.508210634 110.5536194
32.18100355 -1.724335884 110.8317413
32.24229811 -1.346338068 112.9864807
23.6767082 -1.276067887 135.6121063
33.72342108 -4.52358148 139.04422
34.09736822 -4.546320413 139.9974976
31.65564916 -4.531470035 141.2664642
31.99815176 -4.514043306 142.2638702
27.66649626 -3.148216938 109.2213364
33.57746885 3.281896855 140.9411163
35.51274488 1.406575705 140.2542114
33.06077001 -4.522549604 138.5629425
34.06513021 -4.500647758 141.5303345
32.01642797 -1.503966962 124.5979996
35.88097189 -1.13287494 136.951889
21.32491682 -4.537759756 143.9657898
25.91608427 -4.549203132 140.5666199
28.38289831 -4.549943899 137.8266602
26.36966322 -4.553792928 142.5494385
28.90841101 -3.398400282 125.2992554
24.14971922 -4.516436313 137.9017944
31.2130184 -2.994270061 110.7923203
30.71249197 -4.554975246 143.8551788
31.44294546 -4.548994754 143.684906
32.24695585 -1.123705719 116.1994553
30.71789549 -4.5277786 141.3719788
28.40408323 -4.528281187 143.789917
30.46262167 -3.426188444 110.1028442
30.7414913 -3.301087831 111.2625046
27.84571073 -3.111428474 117.3063736
28.29318235 -3.187553619 126.7277451
28.74477957 -3.20338199 134.8001099
31.84715841 -4.548037265 141.9124298
31.41927145 -2.340127801 134.639389
31.88850401 -1.609688495 130.1535645
33.81917189 3.262930657 140.2528534
33.43731878 3.295286204 141.1836853
12.10489271 -4.535143827 142.2166748
27.24628828 -3.988855337 135.6620026
28.59645079 -3.284745907 127.4685059
31.62588499 -4.569029306 139.4670563
31.03562353 -3.026576732 117.3627472
29.25479315 -3.58299086 114.5383148
29.98537443 -3.510782217 115.8094559
30.52756307 -3.271394705 119.2562103
30.7734432 -3.122353529 119.2651367
31.14094732 -2.68314669 130.6107483
30.5855026 -3.347033952 111.0609436
35.73525236 -3.698484634 139.788269
31.26517675 -4.539539312 140.870697
31.96631048 -4.508139108 141.8361816
36.06985662 -2.330090617 142.1530609
32.56000135 3.282687928 143.1103668
33.06305883 -4.5412266 138.4290924
32.2050247 -0.8090434566 120.8812561
32.36496923 -0.09074870198 109.1355743
35.56333349 -2.05930004 136.3899231
12.4106407 -4.540277218 141.0157013
25.89393614 -4.562134479 139.225235
26.34404753 -4.551352237 137.7035522
25.05410765 -4.551010584 142.3993835
15.04230497 1.342447425 136.5119934
27.17583464 -4.54525802 143.1274109
33.55380247 -4.539507602 141.1864014
24.60352705 -4.554856752 143.3603668
28.39035032 -4.541587566 142.8542786
30.95459364 -3.110453819 114.57724
35.47890089 -3.590003704 137.911911
35.99758528 -3.387142633 139.9752502
32.16389463 -4.54466555 142.0373077
32.32303617 -1.188708697 110.9797821
32.23587797 -0.588714747 120.0906601
34.24248693 -4.543450092 137.406189
31.81492422 -4.528907036 138.5490265
36.32292555 1.046554352 138.7029724
31.53771589 -2.500799154 119.7200089
33.90437887 -4.517638897 138.2164612
32.09582327 -1.81169269 113.9856567
25.24469374 -4.535902237 141.6607513
18.85860441 -3.087083076 135.9208984
28.54082105 -3.22543857 130.7539062
28.57192228 -4.556559299 141.8826447
26.07827757 -1.472863351 135.6076813
30.96295736 -2.886940931 122.6970062
31.26212118 -2.811253046 119.3221741
29.17704199 -3.488001321 119.99543
32.07804296 -1.548984443 120.3551331
30.76025579 -3.095852112 122.4022217
30.15468405 -4.535860752 141.2863007
31.53489874 -2.731672739 109.9027863
31.86365698 -2.193664883 114.4007645
30.53547285 -3.286659931 117.5603638
30.75734327 -3.080615019 120.9819412
33.42302511 2.119879271 135.6159058
31.68976782 -2.448621486 115.2834015
31.98143576 -1.89317665 117.5263443
32.08384703 -1.55812255 117.4829865
32.20421026 -1.242377494 117.4449158
32.26288221 -0.8416302547 117.3837891
35.58148764 -3.877693866 140.4173737
34.39003179 -4.506402467 137.0279083
35.03045843 -4.468892788 141.0854492
20.83167265 -4.581051563 143.7890472
23.65281294 -4.543043588 138.192276
27.11153791 -4.098820661 136.291153
28.25084493 -4.011326526 136.1596069
31.21127699 -2.959867452 112.3189011
30.19429968 -3.55873773 109.6450806
30.74088285 -3.309547161 110.8356705
30.94547842 -3.101656173 115.4175339
28.44122885 -3.323954796 121.8345947
28.36732481 -3.253854488 122.6987839
35.51927755 1.398099328 139.9008331
34.88171575 -4.52505133 138.217804
33.96328543 3.271667506 141.4582062
35.59928129 1.253201033 139.3017426
36.30467794 0.1526857272 142.0188904
15.14764021 -4.543857788 137.7849121
13.88914106 -4.478926395 137.6195831
22.98347471 -4.546219085 139.2076874
28.73702238 -3.399157737 122.3235321
30.02813909 -3.55866978 112.0310669
31.13103483 -3.980170463 135.9932709
27.39806745 -2.853215908 113.3835449
30.13715742 -4.551815246 143.6863251
33.70891569 -4.548390363 142.0124664
30.59911344 -3.356272434 110.6725769
32.29110716 -1.28991494 113.1195374
31.03459928 -2.971510862 119.8274536
32.06096266 -0.05706617688 126.9856186
34.06563757 -4.544657682 139.5954437
30.88675878 -3.225741361 109.2552185
28.21558569 -3.307793115 116.6364365
35.12424276 -3.274497722 136.4690399
30.47954557 -4.094719146 136.3516235
31.24211309 -4.539283012 137.2770081
31.46825025 -2.573883389 120.4323044
19.80853269 -4.539895509 141.2766724
24.21655653 -4.199396585 136.4564514
29.88320158 -4.522313093 138.2608032
29.45495031 -3.562998985 111.7587357
31.44429777 -2.368537878 132.6614685
35.22523878 -3.622706388 142.9810638
31.64911268 -2.570668076 110.4915161
31.93787382 -1.994740819 116.1947708
32.06373594 -1.675160502 117.3142242
32.15577505 -1.328295265 118.4351654
30.90922735 -3.055222486 121.7127151
28.2715473 -3.124735807 129.5603943
35.39681433 -3.865141843 138.3882446
33.64857672 3.31257465 141.6629486
33.92150305 -4.536027883 140.3427887
35.98468206 1.28481939 140.809967
34.88188551 -4.498824094 139.1296387
32.50986288 -4.533378099 138.1132965
31.55597113 -2.476056431 121.4239426
32.17734335 -0.8659188196 122.4924393
32.14291952 0.2029163494 117.6273193
36.26467321 -3.188278888 139.9709015
13.96819303 -4.562074159 143.8006134
22.01258085 -4.527921175 143.0297699
21.05321501 -4.541300749 139.0419922
18.54317091 -4.55382893 143.0978699
28.92191122 -3.59806559 110.3179932
30.06346128 -3.583261226 109.413559
30.83961866 -3.160239195 116.4142685
28.89008711 -3.605801319 109.9662323
30.33977697 -3.487617706 109.0919495
30.60865972 -3.362509464 110.3024597
32.28663824 -1.221007501 112.7555695
33.3744869 -4.109770511 136.3786469
36.15174101 -2.328346347 142.0262146
31.22802542 -2.723582243 125.9029236
33.30960081 -3.972341036 135.8350372
32.24880979 -1.206527863 115.3788757
32.24401281 -0.2098812506 117.5548706
20.30472181 -4.552509998 143.5996857
15.44914244 -4.522516941 144.1268158
26.27273558 -4.113981222 136.3282928
29.12238882 -4.534364675 138.2263641
19.31737898 -4.546392893 140.211441
29.37385748 -3.478587125 120.7904816
27.97514341 -4.541395401 139.2969208
26.26818083 -4.484392141 136.898819
32.7168083 -3.493258928 135.6203766
31.43949125 -4.554159855 137.5979614
32.51220892 -4.530046915 142.9669952
32.27717779 -0.4343856022 115.9843292
29.67522238 -3.328649734 130.7467804
28.65093229 -3.567182993 109.1594238
30.65418051 -3.160020803 122.3183746
30.93250273 -3.046279167 119.9959259
31.19105718 -2.90292332 115.3784103
33.38764379 3.308291699 142.5257416
35.88128088 -2.114669179 142.6356354
32.36272428 -0.5899287004 112.7505112
21.56474302 -4.568958019 142.9529724
26.49995802 -4.533907865 138.5721741
28.95801542 -4.548619484 138.171402
29.22995756 -3.522227977 119.4533768
22.02030561 -4.52248547 142.2179871
31.38875006 -2.429561948 131.1880341
27.13507841 -3.422116731 135.6097412
25.44986723 -4.31599686 136.6089172
29.35668753 -4.528813099 137.5362701
26.52164457 -4.529144977 143.6401825
32.27977751 -0.1502865598 114.5434952
29.24384497 -3.517316078 117.6596909
30.47006033 -3.159468149 127.1088181
32.12229727 0.5586260812 111.5792236
31.72752569 -2.362966036 116.6312027
30.27482603 -3.3569288 119.8215332
30.53487394 -3.228653883 120.9945679
32.21104811 -1.084593688 118.8386078
31.07439802 -2.965661739 115.2098923
31.35518072 -2.874663089 109.4435577
32.08028982 -1.398365234 120.9347
32.9138088 3.280584122 141.8949585
19.31063078 -4.557568287 141.0545807
18.45937345 -4.281250213 136.8433838
24.60075376 -4.139172529 136.3629608
16.64842222 -4.530672764 140.5311279
29.94978712 -4.539466356 143.665802
27.98949812 -4.550681566 142.677475
32.49216841 -4.521844839 137.5437469
28.09018324 -4.20175836 136.5075684
35.16902349 -4.411880468 140.3870697
32.16275404 0.3161673799 113.06987
31.61767195 -2.471613024 116.7888489
31.91059301 -1.902696346 120.2435684
32.12115858 -1.170441483 123.7594452
29.8441696 -3.529637788 114.9813843
30.44360159 -3.32743666 117.3515625
30.73662947 -3.227116321 115.0647278
32.03779791 -1.534540687 125.5191727
36.09136961 -2.861167883 138.7151794
15.79493711 -4.56392548 138.815155
12.86334226 -4.538765882 141.5800781
20.10240934 -4.544259762 140.1750031
19.56864927 -4.540752386 141.2156525
22.74655912 1.917825486 135.6209717
27.76037405 -3.193304514 110.0977097
31.39295957 -2.857826923 109.9758453
29.38202856 -3.678944801 108.2036896
31.80325697 -2.419753288 108.7670212
31.95998381 -2.153971289 109.902153
30.37528036 -3.486247514 109.5685806
32.2277355 -1.513164376 112.1129608
34.09408377 -4.521524881 138.0631256
31.66849897 -4.542353128 139.308197
33.68142126 -3.933933471 135.7606201
32.01852224 -0.2525822863 131.717392
13.53209684 -4.358305429 136.9974976
20.82915876 -4.52847073 137.6305695
27.18658445 -4.543237184 143.9427338
22.42475889 2.574087645 135.6230316
28.00777433 -3.2189512 116.1094666
30.2400894 -3.545669054 108.1953125
30.96792219 -3.020022129 118.8353348
28.46193312 -3.291512941 124.3580856
28.39212416 -4.527711843 139.4683838
29.18935392 -4.534398054 141.6687927
31.03425596 -3.106555675 110.3265839
31.91776464 -1.328555618 135.0843506
32.0428047 0.03906198892 126.7629852
31.51135252 -2.744266246 110.0678177
36.08871267 0.9934847612 141.2401428
32.35984609 -0.3924903915 109.5920639
36.27864454 0.7051707762 138.5016327
23.01900099 -4.537996267 141.0716858
16.4173393 -4.546182607 140.3158112
28.99542425 -4.558404659 137.8063354
29.3670368 -3.650134777 109.37883
29.83761404 -3.240082954 134.3429718
31.73680685 -2.264156555 118.9543839
30.84918783 -3.061398958 121.0233154
30.1661968 -4.540855621 139.394165
27.37858007 -4.515394901 140.7860718
34.15147589 -4.550202345 141.1959229
28.5832424 -4.507638191 144.0749207
30.70908163 -3.356115555 107.7698288
27.83557699 -3.223415826 110.4168091
32.21511267 -0.4084667608 119.6778564
30.42300604 -3.027577375 134.6178894
31.33534048 -2.752539848 118.1172943
31.98203466 -2.124282454 108.6442108
32.07050131 -1.226758574 122.7622452
35.37841986 1.406316067 139.8832092
19.84590147 -4.543386911 143.2525024
26.7742996 -4.561853384 142.9452209
18.32251737 -4.551928018 142.5925751
28.79836462 -3.604081367 110.2597351
24.59522245 -4.516478037 144.1117249
27.29379652 -2.848469709 109.4082718
32.54569242 -4.530598139 142.8283691
33.6160774 -4.543743347 142.5918884
34.29042814 -4.521413063 142.4546509
28.16287229 -3.337117885 114.3022995
29.67136762 -3.266328787 132.5024414
24.08278654 -0.1733778164 135.6154175
28.27756117 -3.476565336 107.9747772
29.05714796 -3.456921791 120.2135925
29.79809187 -3.410263752 125.0396271
30.38352011 -3.203482603 126.2234192
35.67074964 0.1100960031 136.2541046
32.10572431 -1.459772085 119.0474625
35.33116148 -3.546648 142.7606201
23.03967665 -4.572851871 138.6327362
24.82366178 -4.540653919 140.5738983
28.77594564 -3.341088508 127.0115738
29.98039816 -3.392089103 123.4312897
28.61511991 -4.566318248 138.6282501
31.09839247 -2.86404941 121.0715256
31.75322721 -2.252798294 119.8701706
26.611145 -4.539277052 138.355835
30.17205999 -4.529739116 141.5705109
30.57350157 -4.539831136 142.6676331
35.33990858 -2.823367571 143.783844
30.39172171 -3.39481089 113.3059921
30.89092634 -3.067491506 119.3013229
31.25621412 -2.572207545 133.5293579
33.816658 -4.511748289 138.6589355
35.78351782 -1.375975643 136.735321
17.29145811 -4.554527973 141.2722931
28.03331373 -3.156549905 120.7493057
28.92928503 -3.262649988 134.1668701
30.77057073 -4.55002067 140.7727966
30.12573049 -3.297491049 125.6890411
29.01313398 -3.347313856 129.0104675
31.57514189 -2.279754852 129.2540894
29.7411804 -3.331094955 130.170166
28.8173599 -3.604467128 110.49263
31.5211334 -2.638427709 114.651413
31.68025205 -2.356887673 118.2192764
31.97587393 -1.726415251 122.9848557
32.96275518 -4.520353292 142.0948486
29.61262892 -3.602476572 110.3588409
32.08351324 -1.900110458 110.715004
32.24273489 -4.526010965 143.0154266
31.34897611 -2.426783775 130.7500763
32.14703558 -0.9581183538 124.7727585
32.09556005 0.203982915 119.7955551
11.76526258 -4.55111811 138.6134644
13.03702162 -4.541025137 139.531723
23.19036482 -3.796492075 135.6203308
22.12066267 -4.529865717 140.6168213
19.189373 -4.542026733 142.1857452
22.61164091 -4.103157972 136.2973633
29.53154753 -3.288050626 134.9161682
32.01678846 0.6577096242 114.2937546
32.05405043 -1.046679263 130.1045837
32.04429815 -0.5019613102 132.6107788
29.85194013 -3.641728614 106.677597
30.17201231 -3.571604227 107.9179916
36.00113294 -2.150339101 142.3956757
32.96943281 3.275639082 142.0043488
32.40889166 -4.011141275 136.1910706
31.68378256 -2.571220611 109.1447601
31.84763716 -1.780040477 125.8379898
32.00376127 -0.9406538055 134.3690338
35.62863729 1.328431035 139.5680847
15.1005287 -4.55058143 139.064682
27.2224922 -4.531698679 138.9129028
16.99580381 -4.266744827 136.9867706
28.29193304 -3.409530138 111.8766632
28.96650694 -3.262674307 133.9684601
27.6636524 -4.545080875 142.2058868
31.93372724 -4.563203071 139.2550507
30.15400694 -3.24822328 128.7349091
30.43603323 -3.150005077 129.9397888
31.62761305 -2.72599933 107.1634979
31.76761244 -2.417734121 110.7111511
32.04088209 -1.768768166 117.8884811
28.93338392 -3.211753105 135.5064087
29.36600874 -3.255516266 135.4466858
30.14230726 -3.222001527 131.7492218
35.53453825 1.2919127 139.4968109
15.94689176 -4.550303434 140.6152649
21.17837522 -4.535032724 139.2864685
26.19457243 -4.543701624 141.2277069
27.43208502 -4.538376783 137.2868805
30.14093588 -3.452931379 115.6687851
30.7854328 -3.295486425 109.0737762
32.31911276 -0.7508164987 113.9474335
28.48130415 -3.366786693 119.4555969
31.34231565 -2.559575294 127.0934372
30.31919477 -3.207581018 128.0256348
32.04305265 -1.448669408 123.1902618
33.4619293 3.312210108 142.3992615
14.51736067 -4.526642774 142.285202
18.91076277 -4.511373733 144.1175385
21.39059828 -4.51193211 139.4969788
26.84184645 -4.560060953 142.5232849
27.82543943 -3.269152616 107.6915054
28.65863226 -3.336741422 125.174881
30.43882368 -4.537236427 138.2273407
29.88529585 -3.384331917 125.1933975
30.76296232 -3.005668138 128.8218689
31.37605093 -2.804313158 114.3717499
29.71101759 -3.638384794 110.2485428
31.99078367 -2.083600258 110.6717224
27.61167906 -3.007479643 114.4505615
28.63662336 -3.267042612 127.0178833
32.65417288 -2.501352404 135.6143799
32.70534704 -4.554839824 141.8752441
32.38292883 0.008037056018 106.0803604
29.34498976 -3.650294517 108.4125214
31.82187651 -2.360702728 108.8713379
32.17493246 -1.834738229 107.5688019
32.31163023 -1.497900759 106.2706604
34.93373297 -4.244033788 142.6416931
36.29424856 0.09603151232 138.0531006
34.43783567 -4.518558 140.0938721
36.31441496 -2.173806165 141.8435364
19.18025968 -4.544625734 141.5174255
28.30792616 -4.546669458 140.9161682
31.98787306 -4.366148447 136.7531281
29.68318746 -3.32906792 130.8703918
31.96243856 -1.264314447 132.4176331
32.51938055 -4.549179052 139.8532562
31.57399366 -2.780133461 106.5910416
29.56355474 -3.64616773 107.3323059
30.22213362 -3.496868108 109.8757782
32.21996878 -1.578930472 111.2920456
31.00547788 -3.020156597 118.4004898
28.86682127 -3.290841316 130.300827
31.87204168 -1.583768462 130.5986328
32.10637472 -0.9018367276 128.1549683
32.21388433 -0.4983466089 121.9634399
32.28373525 -0.04375312178 113.1421814
32.24740408 -1.621941661 107.0590439
32.349102 -0.658306618 113.0068512
35.17612264 -2.741955732 135.7502441
12.19496916 -4.534313892 139.9524994
12.90091703 -4.556883787 138.6652832
16.89613722 -4.53066728 139.443985
28.89718054 -3.50676391 117.5135422
30.4201145 -4.478292202 136.8777008
28.54154966 -4.561957334 138.0760498
30.87709616 -3.064888929 121.3096313
31.39200971 -2.719538664 116.4604797
31.59628866 -2.495525693 115.2364349
30.35296057 -3.379307245 114.8880768
30.92307089 -3.086930011 117.3426743
25.32281874 -3.216276621 135.6153564
34.12121771 -4.522708152 137.2122345
34.47050093 -4.525302147 137.1606903
29.31877134 -4.509208893 142.1287079
32.40539167 -0.4586867735 108.3784561
31.47604559 -2.801436161 109.7557983
31.9947891 -1.972548698 113.3356476
31.65813063 -2.573160862 110.6636963
33.95220754 -3.739382242 135.6288452
15.52844236 -4.554572319 143.5735168
17.15060423 -4.526060318 141.4790039
20.28842924 -4.555544113 142.1537018
25.83943556 -4.561886762 140.0003815
28.32323644 -4.536207651 137.104248
29.58061407 -4.556034301 142.9358368
22.76473616 -0.1649800882 135.6087189
28.96947859 -4.325908636 136.7465973
26.18329237 -4.424437498 136.8319092
32.98126791 -4.149936174 136.4959869
32.39598654 -0.6485249929 109.8446808
28.68962667 -3.495371317 114.2155304
31.47775267 -2.559273456 118.4203491
31.69622228 -2.339130853 118.4135437
30.18004225 -3.353162025 121.7603989
32.09090612 -1.268724357 122.0483093
33.26080511 -4.503060077 136.9820557
31.32992742 -2.843753313 112.9642792
32.26959799 -1.548626994 107.8982697
36.30569265 1.347182657 141.5059052
17.96436689 -4.512231086 142.9501648
13.57512281 -4.547316049 138.7883911
20.5535774 -4.536839937 139.3301086
19.64169309 -4.11139438 136.4450531
25.63853834 -4.520533298 142.2451324
32.4887924 -4.151851152 136.4720001
27.1507263 -4.272604917 136.6191559
28.30348394 -4.175949548 136.4676971
29.07068632 -3.670293783 107.9256516
31.69855497 -2.575813626 106.016449
29.87982748 -3.665075992 106.8554153
30.16648672 -3.5463495 109.3489838
32.19754789 -1.625209306 110.7842636
32.28219793 -1.202912305 113.2111053
30.96758077 -3.079819416 116.7520142
29.59772871 -3.3124058 132.4128876
32.19025038 -0.5227827251 124.050972
32.29377172 -0.1338422939 113.9676971
31.91116903 -2.346478437 105.4392548
35.60217283 1.116860892 139.0187073
23.65708921 -4.521149849 141.3143921
29.41709516 -3.356481289 128.2944489
24.59296415 -4.537827467 140.7909088
30.46405599 -3.189283584 128.2605438
26.34734342 -4.537399744 142.9416809
26.7893524 -4.55778787 142.8348083
33.65662001 -4.504657959 139.6296692
32.26927564 -4.540364002 141.9593353
29.55187033 -3.491126989 120.2373199
32.1487293 -1.24117348 120.5243149
32.19239614 -0.7558876172 121.7582779
35.34133528 1.339910175 139.6203308
35.65810392 -3.262696241 138.194519
36.07400701 1.319843556 139.5126648
34.40076254 -4.533281063 137.8112183
31.33309744 -2.741370176 117.5241547
32.48844526 -0.644819022 104.8220367
35.25729177 -1.530011569 135.6346893
29.86693762 -3.565010999 112.1001663
21.11836622 -4.510187124 138.3269958
30.70137403 -3.143686269 119.5187912
29.44168661 -4.556409811 142.5144348
32.82672689 -4.526576017 140.8671875
28.2371578 -4.536138509 142.4614105
28.64248464 -4.537047361 142.3712006
34.94336889 -4.53131101 141.6154022
31.27502821 -2.872183298 115.5242615
30.60096166 -3.054391836 127.5388412
31.00661276 -4.544221853 140.3201447
36.28767584 1.385915185 140.6670685
31.55177877 -2.749648069 107.5526581
32.73361776 2.386511113 135.625885
35.63017652 -1.184865092 135.8891296
35.81124304 0.9630997432 138.8135986
27.65469358 -4.553227638 143.1150208
29.66118811 -4.528305267 141.4270477
29.07290457 -3.316382145 129.3488617
30.24526022 -3.299519275 124.3318558
21.92118833 -4.555689548 140.7920685
31.69065283 -2.10992894 129.2806091
31.86401174 -1.800841545 126.8322983
34.64176367 -3.757217382 136.0240479
35.7295265 -3.27809975 141.7661438
32.42919538 -0.9953749821 105.1233826
31.18367384 -2.972811197 113.8383179
29.29068563 -3.516577219 119.6455078
29.65826986 -3.504423116 117.170372
30.35520742 -3.400281404 115.9789047
30.65452574 -3.298647855 112.2773743
31.62686155 -2.539326762 114.7670212
31.85646627 -1.769870614 127.1179886
31.93673704 0.387037839 127.2000351
22.14649198 -4.554211353 141.6659546
28.67367552 -4.530679201 139.0961914
22.6200485 -4.541843628 136.9306793
27.07659147 -4.550200914 142.8772278
29.70564268 -3.292595123 132.9311371
29.15537069 -3.597538208 112.5662689
31.75700949 -2.372142528 113.0455475
32.08701322 -1.715338443 111.7081909
28.0467243 -3.219814514 117.1542358
28.5441036 -3.345734571 121.0305405
29.76116178 -3.343068575 128.5851135
32.02884481 -1.104221497 131.44841
34.31732366 -4.51165912 137.6163788
33.50196073 1.922533776 135.6135254
30.93463705 -2.829955791 130.7221375
36.29758451 0.9530500422 141.387085
32.31496046 -1.546881352 104.5074997
12.2499008 -4.538046812 143.5384674
16.3505554 -4.542243694 143.2685547
29.30841062 -3.487558817 120.2987518
30.36782453 -3.337063526 117.8650208
32.01414488 -4.050968622 136.1428375
29.11221311 -3.263637756 135.1492767
25.96204374 -0.8278753504 135.6169434
26.90871809 -4.539593433 142.1974335
33.50646017 -4.553942655 141.4626465
27.731863 -4.539917682 143.2377319
35.68765447 -2.493622636 143.0671692
35.78971861 -1.49064282 143.3764801
31.03640173 -3.170343374 108.5678635
32.23969076 0.1017839566 113.4160233
31.80537603 -2.096018766 120.9496613
32.13530348 -1.485931371 117.1480103
32.29195783 -1.167833005 112.0624695
32.2934551 -1.141674255 113.0246658
22.6548805 -4.525186752 144.1065216
26.27821348 -4.565963958 143.2197266
16.09392164 -4.53787968 140.3227386
31.39103315 -2.832944606 111.5267105
29.22991178 -3.591263269 113.5173111
31.96485899 -2.014679288 113.9492493
32.17101095 -1.727935766 110.1367493
32.29004286 -1.338076387 110.0653763
27.92327307 -3.97939155 135.7052002
31.68967817 -4.309579109 136.6756744
31.62724493 -2.585335587 110.8462219
30.02582739 -3.599633192 109.2516098
30.30924032 -3.455423807 109.267952
32.33411596 -1.379264806 104.3293304
33.28470991 3.273497845 142.4152527
36.03506277 -3.241201614 140.9810486
18.6133766 -4.155650591 136.6264648
13.24188993 1.044086958 147.4939423
25.21153257 -4.544515346 143.4291992
17.99114988 -4.534248089 139.8744965
28.97052 -4.533960556 143.5353394
22.51795576 -4.551583265 141.6973267
30.19152258 -4.543927644 139.5496368
27.36594961 -4.52950785 139.7675323
29.54319761 -3.670827602 105.5166931
31.9646015 -2.228487228 107.1735153
30.52330015 -3.419109558 110.6963348
30.74584196 -3.202584957 113.18573
28.39619825 -3.254505609 124.1658096
31.35487745 -2.437087988 128.2533417
29.68045996 -3.364585851 127.9271469
31.07686613 -3.157850717 106.6652374
36.15491293 -3.07153294 140.9592438
13.32039259 -4.548351501 143.3556519
13.33868025 -4.5510473 143.7484436
23.22985456 -4.546212887 138.1593475
28.42533682 -4.526742433 140.0796967
29.63602827 -3.512820219 118.673851
27.99665258 -4.51615188 138.6560974
30.5624275 -3.17829964 121.2203979
31.00205038 -3.261266922 106.2008591
31.24548147 -3.066714023 104.944931
33.40798185 -4.538852667 142.7015228
24.55851744 -4.503669714 143.8229523
30.95800398 -3.174005245 110.8388214
32.1355438 0.2318287745 117.1807709
31.37709425 -2.674432014 122.162056
29.98740385 -3.434230064 120.5635681
30.56114195 -3.161477541 124.330513
31.87670896 -1.702153658 130.6898041
30.23880194 -3.258612846 126.5395737
30.91762922 -3.094082092 115.2502594
32.34644125 -0.08812156768 109.7660599
18.58843992 -4.549496387 140.6604767
18.05445478 -4.534458612 140.4572449
11.85136412 -4.514859651 140.943222
22.89194868 -3.390210842 135.6179657
27.35968397 -2.877406334 110.4344864
28.66836164 -3.505866502 113.3166733
29.96608541 -3.614597057 108.4295349
28.20161054 -3.442382072 108.9999008
28.72320555 -3.609167551 107.8230896
31.64372251 -2.691809629 105.98703
31.82188795 -2.404637669 108.458252
31.97819136 -2.092571114 109.684761
30.26628301 -3.482078289 111.9141541
32.23339269 -1.319858287 113.3889389
32.30012892 -0.7913674608 115.8652573
31.86887358 -1.359204625 134.7874603
23.37915418 2.111832405 135.628418
29.86886595 -4.51297376 137.5809326
30.29417227 -4.556979631 137.5027618
32.067955 -1.029152666 128.0894318
32.07356832 -1.635754203 118.810791
14.56223295 -4.521005605 137.7223358
28.82640264 -3.404765104 123.4597321
23.78170011 -4.551305746 138.9173737
30.06369207 -3.412867759 120.9471207
30.9167156 -2.972163414 122.1897736
28.48905943 -3.497433399 111.474762
31.68726156 -2.470863436 113.3691406
30.40304373 -3.358351682 116.8125229
30.95013426 -3.011313413 120.6363907
29.19293592 -3.280360197 134.3709412
26.48789595 -3.590062593 135.6203003
31.73692701 -4.131163095 136.400116
29.34190557 -4.550079559 138.844986
30.12657736 -4.541433309 139.9254303
32.11247824 -0.1291647896 125.4127426
31.28817556 -2.955294822 107.3742447
31.59029577 -2.295864199 125.0474167
35.79578398 -0.6687480182 136.5868835
33.20570181 3.253801848 141.4452972
18.6829109 -4.545640682 137.6292877
21.22543714 -4.540079569 138.2531738
23.12825392 -4.545933937 141.6549225
30.42066381 -3.085621332 129.7002411
29.54227636 -4.543645357 140.6525879
34.41060827 -4.530273651 142.3403015
27.73659895 -3.202162241 108.2240906
31.77376936 -2.194941138 120.4941559
31.94422338 -1.874844645 120.4834824
27.9558544 -3.00346372 127.5832672
31.60996435 -1.972666715 135.4841766
30.49879644 -3.15797088 127.4651718
32.22873113 -0.5395887502 121.3812332
31.20714567 -3.035665249 109.7407913
33.0538883 3.281868721 142.7758331
16.36377333 -4.560925459 143.1360626
20.05105589 -4.553170179 140.8709717
18.53314207 -4.55032513 140.7763519
20.04074858 -4.55391023 139.0473175
28.45495031 -3.302123045 122.8836594
29.71073912 -3.357934927 126.7606506
30.04936788 -3.276957248 129.2956848
29.93543814 -4.191903089 136.4736023
29.63314054 -3.248206114 135.4520569
26.3040962 -2.743958448 135.6169281
30.31853483 -3.096154903 135.3888245
30.91764257 -2.810089086 132.7970886
29.39702413 -4.536394571 137.4036102
32.86677168 -4.539228653 137.2101135
30.55815885 -4.507217144 137.223526
31.7450466 -2.381555055 112.0542755
32.0513954 -1.64006946 119.682724
20.34325788 -4.558565353 142.8170319
19.36174772 -4.554839348 142.7147675
24.68765257 -4.184004759 136.5186005
19.30359648 -4.522036527 143.7964478
24.60357283 -4.541938757 141.5357971
30.24051283 -3.198842739 130.4663696
31.26610754 -2.458350872 135.5857544
30.81133459 -2.865682338 133.9723511
32.12925909 -0.8125297621 125.0407104
30.9334049 -3.06132028 118.3314514
31.71642683 -2.542346572 108.1045837
31.9891052 -1.744916652 120.853096
34.73234747 -3.098956798 135.6227264
19.04280851 -4.020936702 135.9071198
19.06024931 -4.512323593 143.7843475
28.7294216 -3.554689144 111.2584457
26.98450468 -4.508070921 137.0319672
30.81188581 -3.063416456 120.4143524
28.19001387 -3.352957462 113.4251862
29.16696928 -3.613863681 112.266716
29.94672582 -3.52656505 113.6459045
32.14631269 -1.615257238 113.9359283
32.28419493 -1.234542881 112.5943451
28.16023252 -3.325230812 114.4029007
29.586462 -3.577909445 113.2866211
31.98900793 -1.943958257 113.610466
30.26340292 -3.414532875 115.9003296
29.50475309 -3.473381494 120.7182159
30.27334593 -3.450596546 114.3222198
32.30895613 -1.267778014 110.6132202
30.93251608 -3.25273106 105.3886414
33.32452772 -4.531449293 141.4761505
32.30385206 -1.236921643 112.9000549
15.66074751 -4.504777883 143.4432983
22.63832472 -4.361315225 136.6565704
21.41985319 -4.553835844 142.0835876
29.71490095 -4.548630689 140.6037903
20.4383888 -4.549142812 141.5440216
30.29031942 -3.181954359 129.2917175
26.32688139 -4.416335558 136.7651367
26.02067182 -3.546548103 135.6210938
30.2911434 -3.128894542 134.1241455
30.8587837 -2.782095169 135.3981018
32.09873388 -4.060707782 136.2700958
32.80821607 -4.546615337 137.3017426
29.79778097 -4.083263611 136.2969055
32.52848432 -0.5668327071 135.6138153
31.88255689 -1.420613681 133.921936
32.06857107 -1.091750984 128.7363739
32.43642614 -1.07018051 103.59272
35.82543371 -3.577664112 140.0359039
17.12500379 -4.554624532 140.3863373
21.67050169 -4.535564398 140.8759918
24.03474806 -4.545885776 139.0214691
25.37291715 -4.537568544 143.8141937
29.54982374 -4.556328033 143.0899658
22.62548063 -3.985313152 135.9623108
29.73110769 -3.67185161 104.6126633
30.66125296 -3.305724596 111.158371
32.27861784 -4.539734815 140.0487823
30.382637 -4.555194591 138.8523865
31.92413137 -4.033401703 136.2273102
27.96730421 -4.532798742 137.318985
36.29135511 -0.1751445577 138.0495148
33.34348486 -4.437547659 136.8679962
30.38516233 -3.975493406 135.7995453
32.14873312 -0.8115863398 125.9919891
31.69461439 -2.485705112 112.7137985
34.06571386 3.279661919 141.3076782
11.66765592 -4.506627058 141.458374
22.62945555 -4.231923078 136.5075989
16.51668928 -4.167668317 136.7942657
18.99792097 -4.526869272 137.802887
20.04969404 -4.044185375 136.2515106
28.94144819 -4.448410009 136.810257
29.83601759 -4.568766092 142.9749451
27.34402464 -2.875929331 108.7231522
24.34655378 -4.538050388 143.2618408
28.23930166 -4.551696275 141.4406738
31.185585 -3.119895433 104.2001877
31.68055914 -2.723269676 102.8660965
33.63795469 -4.540540432 141.9076385
33.98043249 -4.522754167 140.6374512
31.42310713 -4.547580217 140.7861938
34.69773481 -4.516515468 140.5040283
32.43166159 -0.2150564239 103.570755
31.01997946 -2.869535898 124.2077866
32.90280722 -4.529874061 140.1698761
31.90078733 -2.460465764 103.5340271
32.43256376 -0.8399801448 105.7801666
14.43516538 -4.52042744 143.4905701
20.80164335 -4.52288196 141.9954529
16.88273237 -4.182025884 136.2391968
28.38064573 -3.370115732 115.8455963
29.86911009 -3.707275604 102.9963608
30.7897415 -3.298350309 108.2560883
22.29408644 -4.525352453 143.688446
26.35127638 -4.535303091 143.1267548
28.88486669 -4.552201961 139.9443359
29.67881964 -4.533443903 139.7959137
36.09605978 -1.553034817 137.570816
29.28280828 -4.521637653 139.5255432
35.45939443 -3.003343319 137.0387573
31.01153753 -3.082898353 115.0384598
35.51005171 -2.456615423 136.4895172
18.57810591 -4.547047352 139.8539124
24.39177702 -4.55020902 138.7248077
28.58099172 -4.350167011 136.7032471
29.13964079 -3.476266836 119.7254944
30.71355055 -4.568779443 137.6109314
30.24911688 -3.330169414 118.4507751
27.80779074 -2.808418726 132.7938232
30.85089681 -3.042294477 122.0280685
31.30274198 -2.553286289 128.5571442
29.47550581 -3.347434972 129.5698395
29.85672567 -3.314768289 129.545105
32.03710554 -1.262224053 127.3033142
30.80040739 -2.992048477 125.5787354
30.25469778 -3.316371177 120.0883865
32.27951429 -0.9909693644 115.0604172
30.95892713 -3.211477255 107.1038818
35.96537969 1.256182338 139.2565613
34.08580206 -4.480550502 137.3620758
17.75403974 -0.5973205587 136.0822449
20.4042816 -4.528017496 140.5241699
14.06584928 -4.550339435 142.5976105
31.21544645 -2.650483583 126.1503601
31.46160314 -2.417908405 124.8484573
31.89345358 -1.849090193 123.5508804
29.36851309 -3.438730215 124.1774139
30.09897611 -3.328477119 124.1678696
30.72999952 -3.095758175 121.5641403
31.03326033 -2.943546747 120.2635269
31.25176046 -2.688577865 124.1643677
31.51685331 -2.450430964 122.8693695
31.73785208 -2.188003157 122.8698044
31.96397589 -1.937100147 117.6273117
32.34881399 -1.286602233 108.3120804
32.47248838 -0.8814389453 102.8874283
34.17983435 -2.444296335 135.6230469
34.7237911 -4.519145464 139.6319275
16.07124708 -4.55126593 143.214447
17.20162199 -4.560644602 142.6312103
16.63355253 -4.554872488 138.9246063
25.87007521 -4.532860492 142.0451965
28.73910902 -3.351078008 124.7668228
27.51404569 -2.809859251 120.3871307
31.50814817 -2.673141693 112.9641647
32.25246237 -1.38578615 112.8420792
32.3822479 -0.9353151068 108.7749481
31.22584341 -4.553856109 140.5529633
34.59372328 -4.520826076 140.2664948
36.20327757 -1.05405793 142.5700836
35.89985845 0.2170582667 143.0539398
31.23674391 -4.5263705 138.9608917
32.03516004 -1.634755348 119.7837906
35.35111997 -2.751602386 136.2148743
12.96435926 -4.505279516 143.5594025
21.56649778 -4.57036898 143.2540436
23.39832685 -3.993624185 135.9942017
15.31282041 -4.548814272 139.0995331
28.26886366 -3.424260591 111.2430267
28.90431402 -3.202174638 135.3340607
29.72086904 -3.727527832 103.5402374
30.122385 -3.197543119 132.5213776
31.84543417 -4.527745222 140.9822998
27.03294752 -4.031933759 136.1368103
21.8901634 -1.040986989 135.6211853
32.02199171 -1.173830424 129.6463623
28.55418775 -3.258134102 126.3127518
29.07352255 -3.39091513 124.9585953
31.78391264 -2.059573983 123.9359283
30.28228758 -3.399919485 115.7118378
35.12580679 -4.405378793 139.7987671
31.43809126 -2.729839777 114.4322357
32.33528707 -0.4178324685 111.5015793
17.83419035 -4.563823913 139.3403015
29.9032974 -3.621995186 107.339325
27.78122328 -4.087333893 136.25737
30.86128614 -3.266814445 108.7188644
31.16828726 -3.138335441 103.476532
30.94590566 -4.520815109 140.8341064
28.10611532 -4.531835293 141.081192
35.35363958 -3.820198511 137.9937134
31.8304138 2.281593109 135.6122284
30.48513792 -3.276615595 119.555542
30.8289356 -3.218316053 111.6666641
35.09789465 -3.972221349 137.4178772
32.37825582 -1.314094458 103.4863434
15.42623899 -4.521933054 143.1266022
16.53453062 -4.543555235 142.5265961
19.20110319 -4.535331939 140.0652008
18.16735456 -4.546999191 138.3990479
30.57608221 -3.031725858 130.9675293
27.90629766 -3.364586328 103.6756516
33.85636709 -4.52844808 139.2157898
31.57917211 -4.534986232 139.3616028
26.29045103 -4.557477449 138.3082428
32.93349645 -4.292932724 136.6786041
35.45281599 -2.886644577 136.9017639
35.65714262 -1.294172262 135.9829712
31.59109114 -2.169428562 130.3578339
31.8492584 -1.929653262 123.6948929
30.01427076 -3.392788385 119.4242249
31.99511907 -4.536933635 141.1245575
36.13834379 1.423082854 139.9382324
16.31474684 -4.559686159 138.2740631
21.4892349 -4.547395919 143.0990143
23.80694578 -4.530913805 136.9645081
21.36967466 2.604054953 135.6346283
26.09722517 -4.544051145 138.9788513
30.64978025 -4.525048708 137.1742859
30.29439733 -3.404830908 114.9865189
21.46215055 -4.540711139 137.7017822
29.09586523 -3.450531696 121.2617111
31.81150625 -2.090262388 120.2676163
31.99382208 -1.750694488 120.2614594
32.12112043 -1.316943739 120.2517242
32.291275 -0.2653490052 114.7825546
31.17793463 -2.944691156 114.6579056
31.44973371 -2.732596611 115.9636688
31.62060545 -2.422975753 117.2862244
29.95218847 -3.466693138 118.2925186
32.19762609 -1.411694978 115.883194
32.29556463 -0.9234765217 115.8422089
28.74579809 -3.54027531 112.5146255
30.7515373 -2.903844808 133.8839874
32.14889715 0.6971571702 105.6032715
31.57782362 -2.338540767 121.9452133
31.93788526 -1.667722558 125.9468918
32.21422766 -0.8007323936 120.5898666
12.0766258 -4.513584827 141.8491211
25.47243498 -4.541731332 143.4239197
29.0511379 -3.602729534 112.0864487
30.22113798 -3.524533962 109.5424881
32.16309355 -1.583327566 114.7739334
31.17546842 -3.133194898 105.2217941
29.12588117 -3.66564629 107.3583069
29.93505857 -3.670548414 104.812561
32.47222326 -0.798770313 103.4477386
35.48757742 -3.991353964 139.9586945
35.4358177 -2.653464292 136.5454102
30.39701078 -3.141918634 128.4675903
32.21996115 -0.3203149185 119.4141922
31.20690344 -3.198171114 100.6392822
32.01427839 -1.939900492 112.4720154
35.92247961 1.432000185 139.8473511
15.33279417 -4.514890169 141.389389
29.82194326 -3.675643181 105.3388824
26.25661085 -4.558622335 137.1002197
31.20801161 -2.792968486 122.3754883
29.26541326 -3.490966772 120.6795502
31.91076277 -2.021651839 118.3513336
32.0512142 -1.607630943 118.3339233
32.33699415 -0.757421647 112.8346558
27.85834692 -3.280910705 107.9727936
28.45566748 -3.522379135 108.1073227
31.57567785 -2.683713649 107.3490067
29.42546842 -3.723739361 104.2468872
29.8005142 -3.717792009 100.3162155
30.9623966 -3.027307962 120.3765488
35.53372953 -3.009801601 137.3217163
35.55169676 1.241649891 136.6626282
14.59255979 -4.523021911 142.6800232
16.24934767 -4.511567091 139.9554596
25.59525678 -4.530305122 137.4792023
28.84951589 -3.729031776 100.9270935
29.49496839 -3.44112799 122.5800247
24.29049299 -4.544467663 138.7796631
25.63704298 -4.550394987 139.8703003
29.43182562 -4.528786396 138.1540375
26.51835249 -3.958439325 135.7271881
23.79809568 -3.948825334 135.7543793
24.26162336 1.459508444 135.6201935
31.03523252 -2.711186622 132.9682007
31.74391935 -1.953655456 128.9800873
31.91748426 -1.589939152 129.0090637
30.06490133 -3.674689745 101.5114288
31.43978498 -4.532042955 139.6993561
32.480669 -0.4671983168 135.6184387
17.71732328 -4.533761715 138.4729004
28.08980368 -4.004077886 136.0435028
26.77761076 -4.523429607 141.3023987
29.71090124 -3.38853309 125.1445007
24.55052946 -4.515488599 138.6446686
30.78639028 -3.160315489 117.0981293
31.14807318 -3.070953821 109.0825195
29.13121412 -3.719857668 103.138855
30.93323896 -4.545463537 140.4710999
28.4878063 -4.538825725 139.2558289
29.70479009 -4.513348793 137.7163849
28.97799299 -3.423916792 121.4552078
29.41353414 -3.502059435 120.1064453
32.27332304 -1.679555749 102.7933121
34.38427542 -4.536130403 139.1079712
32.23608778 0.3546781793 108.8808441
19.58032987 -4.539289211 140.2129822
14.79135511 -4.544408773 143.6400146
12.24560926 -4.326377605 137.4183807
28.87036894 -3.556675409 114.1873169
31.43725775 -4.340769027 136.7099152
28.92656706 -3.608907198 111.0937424
31.8099346 -2.436073636 107.5244446
32.06912802 -2.170059298 104.8232803
32.2250099 -1.774502014 104.7459564
32.37283132 -1.443658744 101.9389191
32.50471685 -0.9513855323 100.4528885
27.50159643 -2.788557743 119.9243088
31.22435758 -2.760084604 121.6543808
31.74591825 -2.325327133 114.9400253
31.98687361 -2.080334757 109.4898529
32.20810125 -1.743903254 105.367569
32.08605383 -1.57363454 118.6190033
32.40095518 -0.7729859844 108.9615936
13.97001264 -4.54524896 139.4541473
20.90616987 -4.540782427 139.5631561
24.2256584 -4.545529817 137.4987335
30.07920263 -3.685281252 100.6370773
20.64392469 0.5019754422 135.6832581
30.9943733 -3.217046713 107.4131088
28.30607412 -3.518641685 103.9508896
28.88043783 -3.752943968 100.0169373
34.53329656 -3.983954643 136.2667236
28.49557684 -3.154890989 132.5884399
30.56684873 -3.19779775 121.5371094
27.37257955 -2.824714636 112.8005295
31.76859854 -2.533982013 103.9456635
34.88406942 -4.526601766 138.8949738
36.20246122 -2.227620815 138.0580292
23.36558912 -1.327460442 135.6163788
28.72606466 -3.714548086 101.5651398
23.06143949 0.3192920342 135.6133728
30.43578527 -3.234639381 123.4624252
21.76404951 -4.5627434 141.4114685
29.27577398 -4.525181268 137.9030762
29.49746321 -4.262987112 136.5796814
23.13463972 -4.485569452 136.8244171
22.92245481 -3.662999605 135.6141968
32.08471487 -0.6481396787 130.4282074
32.13401602 -0.07024142598 123.536911
29.86696623 -3.557223056 113.2862625
32.36776922 -1.115965043 107.9869461
35.72510908 1.451215292 140.1522827
30.85273931 -3.189930652 112.977478
22.46017073 -4.521503662 140.8401642
12.45441435 -4.54796574 143.5336914
14.15995787 -4.518793081 141.5274658
31.9135494 -1.905259942 120.6171646
30.70579336 -3.174695228 114.8631363
29.01088331 -3.695573305 104.8344879
29.43979452 -3.732235645 103.5496368
34.27477453 -4.544076894 140.8174286
34.60917471 -4.499605154 139.505722
29.16580961 -4.49429891 137.1186218
29.20070265 -3.945816492 135.8982239
29.12811087 -3.272256111 133.3117218
32.41558073 -0.6876804575 108.7948456
34.68720625 -3.310611938 135.6359863
23.76511 -4.553898548 137.3189545
26.67375944 -3.6740844 135.6110992
31.44671438 -4.526443695 141.6215973
31.45809172 -2.67091081 117.776207
29.16110037 -3.544875835 116.0156784
29.6318321 -3.577501272 111.9333038
32.32076071 -1.421980296 103.960556
25.15444181 -4.528978323 141.9513245
26.12817762 -4.080291008 136.2640839
30.52734564 -3.082365488 128.0129852
30.90412519 -3.04266498 118.4740143
28.09910009 -3.175296043 120.8352661
31.46121405 -2.637253736 117.0803604
31.75330541 -2.43401513 111.6342316
32.21480368 -1.909453367 101.9699707
30.86421965 -2.986506199 124.9009399
31.73925779 -2.463310693 108.5708923
32.22358129 -1.907261466 104.4060745
34.91354559 -4.527260994 138.6803436
20.04046247 -4.364891027 136.8085327
27.79782484 -2.99099109 121.7722778
29.53437422 -3.678051685 108.0595398
24.95435713 -4.517984842 142.3508148
28.93167494 -3.356254314 124.1827469
29.39624975 -3.465191339 121.4011078
32.18489645 -1.353803609 116.2088089
30.12718008 -4.534099792 138.5241394
31.01175688 -2.781279062 129.2696686
28.96494291 -3.402727102 122.099823
29.44466207 -3.487910246 117.9705734
30.26482389 -3.517632698 107.0701141
35.39045713 -0.04948386998 141.9955597
31.81965063 -2.770571684 135.6245422
32.92261694 2.409949328 135.6292877
32.15320776 -0.6489211068 124.8782196
18.50376509 -4.553498481 141.4946594
20.53858183 -4.526899551 137.7758026
26.17436979 -4.541542743 138.1637878
29.44110487 -3.701791977 105.1208496
31.58712004 -2.571509098 113.4095764
32.05101393 -2.004755233 109.2506638
32.24653814 -1.643848871 106.4320297
35.01764868 -4.485115026 139.5365906
29.18245695 -4.535844778 137.256424
24.28895567 -0.7549601689 135.6154938
29.96443746 -3.241246198 133.3296051
32.07216833 -0.7088494718 131.1105042
29.47255705 -3.744698976 102.703125
30.82866285 -4.506787275 140.6269684
31.07926176 -4.305540298 136.6322479
31.86965177 0.3955946222 130.9402618
31.1060066 -3.085943435 109.6659698
32.00022123 -1.910991405 116.4774017
32.42194937 -1.281665777 102.5358276
14.48498152 -4.527894233 142.0311737
17.44895552 -4.162420963 136.7581482
14.25298689 -3.084420179 136.6669769
29.99637411 -3.520642732 114.6344757
31.01788137 -3.145089601 110.55616
31.31908987 -3.02238295 105.0797195
29.38324354 -3.795564865 100.432045
27.76481817 -4.533850645 141.5703735
25.13082121 -4.520425771 137.5048981
27.93661497 -2.893938516 132.1582794
28.63440321 -3.309709762 126.4348907
31.88699339 -1.963892196 121.1763458
32.47014997 -0.1449382946 101.3010483
28.38913915 -3.62287948 99.51861572
31.59376524 -2.783586715 105.4104004
34.34646032 -0.6734713659 135.6208801
13.04050062 0.9457869782 147.3446503
30.12624166 -4.540467476 137.6086426
29.9996929 -3.66592214 103.4988251
24.42990492 -1.974995946 135.6092377
31.70735548 -1.877676104 132.4889221
26.92678068 -2.320096587 113.4796448
34.8227844 -3.779804205 136.4395599
14.68876646 -4.540165161 138.625412
22.46253965 -4.501945709 141.9199219
11.82066725 -4.52958486 139.9805908
22.51539228 -4.548305248 143.0171509
29.30953596 -3.477325414 122.6728287
30.80964277 -4.529574846 137.4320526
30.52996824 -3.432679151 107.4692154
31.52187536 -2.432566618 124.0465546
29.33751295 -3.492982362 120.9437408
31.98340032 -1.846975063 119.870636
27.3529434 -3.094883894 97.64920044
32.43368337 -4.523976062 139.5089874
35.25312231 -3.493854736 137.0053864
26.64933775 -4.509535526 137.1095886
32.03390119 0.2182854071 123.8284225
29.48931311 -3.702675556 102.1735001
35.3119335 -4.238432621 140.0618439
35.76441 -3.699526285 140.1580811
36.16403387 -3.033684705 138.9993439
32.70961378 -0.8828279123 135.6298218
19.35464857 -4.537414049 144.0493164
18.36093519 -4.546668028 142.4510651
27.79754827 -4.553205465 139.2517395
28.78898237 -3.504295324 115.5511703
27.85427473 -3.426370596 98.034935
28.328701 -3.443765377 110.5666962
29.31426618 -3.68148682 107.9072037
30.4950485 -3.524106954 102.4696503
35.65642355 0.008518065518 142.0105133
32.05557249 -1.337935601 124.6725845
32.21961973 -1.016958718 119.0426331
30.75061224 -3.325281595 107.6670685
32.16196058 -1.596084927 114.5377884
34.97143553 -4.451564525 138.3220978
15.92615126 -3.874429201 136.3638763
28.90088079 -3.250001405 133.3708038
29.80896757 -3.339716886 127.67453
32.07837103 -0.968001549 126.6973953
30.49547575 -3.144733165 124.8469772
27.24483106 -2.703022455 113.1375351
31.23801992 -2.969918703 110.9851303
31.5126972 -2.71586368 108.1518936
31.76837347 -2.477229808 105.363533
32.01862905 -2.273255562 102.5388489
31.10037992 -2.739670967 128.6861725
29.47869299 -3.476431583 118.5967102
29.97209356 -3.558462595 110.2704773
32.37220762 -1.45636097 103.4648666
31.25467489 -3.017238592 104.7523346
32.21291349 -1.897090291 101.8095169
32.11052893 0.4959023252 114.2175522
12.24668501 -4.409105037 137.6088257
28.97246168 -3.504924034 116.6945953
30.2649288 -3.577756857 104.2212372
31.46126364 -2.85037062 108.4035721
31.72093389 -2.617042516 104.2068329
29.52898405 -3.724396681 102.3408203
27.52948377 -4.542850231 139.9013519
32.19417189 -1.326781188 116.32827
36.22384069 0.07566591652 137.6315308
32.20156477 -1.33753625 111.7438354
32.52548597 -1.121876334 98.96248627
31.53211401 -2.316026543 125.4475861
31.9313793 -1.605264281 125.4869003
32.3344364 -0.8790429876 112.7715302
14.50550077 -4.528114055 141.5430603
24.2523422 -4.53479359 137.9819946
28.98166082 -3.730940555 99.68409729
20.42989729 -4.561159824 140.92836
30.70838545 -3.176973318 118.0028381
27.42506788 -3.964571689 135.7882233
27.40802 -2.643757318 124.4674759
28.22019194 -3.246643757 120.0924225
31.51815222 -2.473671054 119.0569
31.75139234 -2.177435611 119.0550461
31.98238371 -1.899744605 114.8192596
32.19770048 -1.541319166 111.9748077
34.3464298 -1.87266538 135.6240082
31.3627281 -2.839661335 108.5712814
31.93689916 -2.465006922 98.78643799
34.84765623 -3.399498199 135.7915955
16.55459974 -4.528894876 142.9615021
15.50471876 -4.521491741 141.9801941
24.79495237 -4.203211998 136.4479675
28.45248983 -3.117270683 134.9947052
26.80809782 -4.548400377 141.7205048
29.90190695 -3.403424953 120.6869431
28.14093206 -4.539625858 137.2258606
