# .PCD v0.7 - Point Cloud Data file format
VERSION 0.7
FIELDS x y z
SIZE 4 4 4
TYPE F F F
COUNT 1 1 1
WIDTH 1311
HEIGHT 1
VIEWPOINT 0 0 0 1 0 0 0
POINTS 1311
DATA ascii
39.62082479 -8.563609658 144.4893031
38.95379637 -42.85687129 163.8471134
38.85108946 20.40865673 154.1429281
38.25175093 44.02503497 165.7338581
38.32753752 -49.76478106 167.7644787
37.70256422 -24.22282813 154.0864387
37.52136038 1.109332221 142.4295001
38.10235403 36.83861391 160.1306895
37.9629402 3.710141148 141.2721789
38.26720808 1.597265253 114.0472965
38.63821028 -1.351419723 78.30321974
38.25044439 1.86202498 117.1928146
38.21521757 1.868076944 118.6175435
37.31656835 -0.06128124378 128.9080203
38.18637846 0.1596677013 92.99630335
39.01180265 -1.014888144 88.46849895
39.03728102 1.275351603 118.6683743
39.29331777 0.3146598656 131.8388414
43.26253126 -0.01637159113 138.5979957
38.58700369 1.703212144 126.6291719
42.85978124 -2.526840038 139.9449424
39.09023092 -18.85315389 151.2542585
39.58490179 -10.73575223 146.1846188
39.50046537 -19.94498543 151.0756336
38.77995489 -22.25582215 153.4675857
39.40133093 -11.66914183 144.8508574
38.15915678 -39.1076259 160.9804881
37.69917868 -28.64219214 156.4966779
37.94468687 -43.01853445 164.8654645
37.39280508 -22.41721892 152.0453506
38.14067076 -18.83173795 147.4686604
37.44754408 -0.1242380023 113.1080987
37.36587904 -0.9348602933 134.0907204
38.11213873 -1.641465547 124.5381378
38.53800581 -3.701642065 139.6024704
38.37860105 -1.759068624 128.0102344
35.54623602 -2.550742628 139.4657435
39.30073164 -1.186993318 120.0587997
39.8099098 -2.861554583 141.7075158
39.0261936 3.207349314 141.0312847
38.98565481 27.29993708 157.0300006
38.3379936 55.76690317 171.408919
37.79827879 34.56260891 159.2704166
37.82192037 24.30672523 153.228983
37.22815512 14.19460686 149.1586333
37.92901991 5.184400384 144.5718976
39.61253927 3.493571287 142.0471913
39.01573942 15.38744854 151.8702148
39.50092695 -1.328841983 113.4821533
37.99875639 -2.290764747 115.8490204
38.00714681 33.56390882 161.0814651
37.23965452 13.6554005 149.2421937
37.98154257 0.5417154996 117.2223268
40.86861608 -2.689824866 138.0951752
37.2951679 -7.48708518 143.5581117
38.05031202 -27.49514848 153.5027833
37.30424116 -13.52858907 147.0839447
37.89116094 -3.136360498 137.8258729
36.42540548 -3.364504671 141.1162782
37.81804273 -40.13574869 162.8536438
38.89322851 -52.03645213 169.8854203
38.60066603 24.41518522 157.3279938
38.76712416 -21.8688152 153.1272263
39.35303114 9.486822325 147.8282074
39.45553778 -3.962451967 140.4838776
43.95297048 -1.213413385 140.5819764
39.4027252 -9.638717442 144.0009674
39.169569 20.48384973 151.846228
39.20581625 11.88140982 149.7422853
39.12101171 36.19841502 161.2014679
39.25878523 28.01853298 156.627272
38.51692961 54.17698786 171.1799911
38.07679174 41.48100394 165.1542801
38.1682453 26.23645517 157.9002747
38.02897642 24.56026953 153.9168153
38.0823078 30.36235539 159.6847444
37.51839636 23.90031169 155.4606461
36.42287062 0.3723456415 142.2755035
37.48626707 -22.50956615 151.2867187
37.76823995 6.375125615 145.6549744
36.66360662 0.7176045659 139.2189088
38.61371992 3.453512819 144.1824861
39.68036268 -6.984772489 143.2391571
39.67667959 -9.3453548 144.4033264
43.10381887 -2.422225844 140.9890045
39.46739576 -1.715975663 133.3082948
38.88571165 -2.313489892 108.5056672
38.36869428 -1.362089741 81.60408636
37.7120857 -1.830865018 104.277823
37.53184889 -1.552586172 113.4827485
37.3417568 -0.4191738072 128.5894227
37.55919836 -1.846070228 132.2996887
39.11559103 4.473058834 144.5642304
39.5492172 -0.8023144186 131.8293753
38.91145895 40.88871848 163.7869977
37.7057266 5.197453058 142.2981298
37.53754614 -29.69330254 156.3855986
37.90040205 -2.221259688 142.6185424
38.10191725 17.34186285 152.7105692
37.9211788 0.5038786747 131.8179589
37.73759649 1.266128714 124.4497295
37.51405332 -0.7709398206 112.5143823
37.26291464 -0.1341574569 124.7846727
37.74365995 -1.176993919 113.6220312
37.94325636 0.7011928018 108.9197892
38.26524351 -0.5977759024 79.25237155
39.19061849 -0.3807022099 98.92363009
38.88980673 -1.265923704 92.96401989
38.97621153 1.240965538 116.7854888
39.08274649 1.090390569 117.7853059
39.61592291 -15.91127149 147.2712564
39.08814237 2.131108015 142.7739596
39.52960775 -17.16429247 147.9166196
39.71009252 -16.53083184 148.352362
37.49752615 -0.3688958399 142.8379495
38.88620375 -35.50970282 158.8995966
38.95916365 -48.57301591 167.7670074
39.27202795 -33.15808508 158.8043652
38.36066244 -53.92930134 170.3702327
37.46471022 -26.07708904 154.2558611
37.84781263 -1.54493172 135.7803906
38.0617256 -15.60838442 145.4999366
37.81910513 -21.05332493 152.4682646
37.29985998 -9.495748146 144.4125704
38.45812223 -16.06292039 150.0722196
37.51626013 -16.85297776 149.6208149
36.86816786 -3.002878811 141.4374954
37.85757826 -1.570478778 128.7541132
39.60511778 0.02997514083 119.4333091
38.43962667 -8.412640597 142.8528573
42.6652088 -1.474626396 141.5903198
39.66028974 14.76738018 148.8446612
39.15585516 39.12756107 162.2141208
37.96403501 42.01412017 164.2371284
38.09381483 29.95274916 156.1482384
37.99933431 17.88057471 149.2842373
37.84869192 5.153247947 144.4949957
37.98564337 5.901870726 145.0273834
38.66234587 38.82463936 164.3404604
39.25548933 -1.959305245 123.1843324
38.46204565 -1.609057787 76.06729756
38.28554533 -29.55845349 157.5397554
37.16969297 11.36785993 148.2689576
41.59507177 1.254493319 140.1086488
37.75539968 0.03018956076 115.5799471
41.77859304 -2.343178686 138.2540803
37.46192358 -21.10088629 150.4172273
38.35140417 -31.21091362 158.4958329
37.39274404 -19.66010945 149.6668612
38.19462202 -22.63919538 149.7408052
37.27256391 -15.6850843 147.2772431
37.95808599 -44.60151573 165.6857209
39.44225881 -27.77824678 155.0547471
39.0392494 -35.53476992 159.0381761
39.33492086 -26.79453365 155.0752016
38.77991102 14.86118037 152.2456881
43.63908766 -2.055250296 139.7783265
39.0948963 11.7216235 146.4713961
39.64560316 -0.9219562938 136.2633883
38.69817541 2.908638324 141.1705538
39.02504537 25.84713276 154.8172746
38.55924604 27.78096875 159.0516344
38.56015013 49.80891137 168.6313844
38.92254827 -42.50861257 164.6211839
38.18111608 48.68806942 168.9651094
38.41437528 36.27749357 163.3312135
37.94797705 29.56893068 158.9798951
38.03892515 26.45669657 155.0406709
38.23981665 -21.20592778 152.7880387
36.55499266 0.4547446662 142.3105683
39.65385053 -3.783023284 139.3827119
37.3212776 4.480543193 143.4752871
38.69184301 -4.848838035 143.399466
39.61949346 -16.20083228 148.5149446
39.2338619 20.27385814 153.930327
38.9223995 1.28207501 142.8069063
43.11997984 -1.592016251 141.558661
39.42718122 -0.2296178881 116.6882692
38.68117521 -2.475523538 80.18173846
37.77736853 -1.848924076 95.21301896
37.5001602 -1.091866837 109.4444184
37.3290901 -1.04982079 119.5624605
37.36639593 -0.5267199609 130.2440705
39.89080999 -0.5117139936 129.6769624
39.59198568 -1.002858766 132.3254477
39.20112036 -21.09775237 150.67449
38.2892761 -21.41838893 149.6011562
38.26597593 0.1692847972 94.18506665
37.94862745 1.038206417 116.3790631
37.97330854 -1.722629106 131.7834197
37.73170469 -12.31075933 148.1138874
37.75480459 9.505859754 148.2545907
37.51846311 22.35514097 153.6247462
38.09187124 28.1912719 158.8151003
38.16158102 24.53760396 157.133124
37.42304991 17.17054369 151.8972171
38.1462631 42.92179689 166.218568
38.71329496 47.94018801 168.823152
38.89616392 21.97675507 155.5914482
39.45174024 18.18587649 151.1670249
39.68687055 12.82846904 149.1056186
43.04227064 -0.005910411763 141.8335545
38.98583029 17.85583871 150.1368257
38.72084234 36.34734148 160.8521512
39.61394308 0.05762121187 116.9561525
39.48468206 -0.3880707362 110.5428796
39.48231123 0.1253070448 114.0822226
38.65051267 -1.669549082 106.2461762
38.74125097 -0.671873498 81.90848135
38.08952329 -1.294785593 81.45659535
38.29801557 2.065955256 121.1062435
37.96168707 -1.163719289 86.50415025
37.52997969 -0.8861553189 115.188137
37.66484831 -3.856858071 140.5338483
37.34310339 -0.1356109377 117.2659194
37.46718595 -1.224963971 136.050522
37.27302549 -0.1443015625 128.3910952
37.22774504 -0.9070050535 137.3744058
39.11182402 7.880617129 144.3498051
39.44902799 18.45998883 151.3669296
38.19955633 7.154579479 143.777116
39.63948248 16.5656985 150.9770663
39.601593 -0.9853854906 135.3800347
38.85626791 -27.75956146 157.388431
38.13786314 -53.72270058 172.0434973
37.73409651 -37.56370168 162.0418666
38.27239607 -26.74119243 153.2964631
38.173748 -16.18309452 146.2890999
37.51369856 -5.648403553 142.6800069
39.43727682 -0.3122667881 108.9227875
39.327404 29.0167858 157.7802258
39.13088987 -36.26768335 161.8585204
37.34494779 5.005504006 144.2028033
37.98386762 -0.5182705769 92.00057929
38.31641195 13.39013958 147.4565274
38.30174253 -21.07726509 149.3846117
39.6202545 0.7590472934 142.7189706
40.58954809 0.8917663213 142.3380679
37.63268087 25.23119757 154.948172
38.06374166 17.84195001 153.6202314
37.5305557 5.855987356 143.5200913
38.26127813 28.7705477 159.4546963
38.15463446 43.65725976 166.5166275
38.97185705 44.21461934 166.4556812
38.90876387 35.6421172 162.3466856
39.624279 9.861531403 147.5030325
39.27749632 -3.938648564 143.1219039
39.42305372 6.751911619 145.6608667
39.04048536 3.732230512 141.8925396
39.19193457 1.205041366 138.1823118
39.61314772 -0.4363756669 119.4802549
42.30955122 -1.688816181 138.5355431
39.00019262 -1.336366816 97.87708254
43.78670023 -0.6978847067 139.5506845
39.45772932 23.00276481 154.2280463
37.90097044 -0.7504176122 89.01035395
38.42746733 -0.118948839 83.27982535
38.01436994 1.075639792 114.1111207
38.14421842 -1.647548739 109.1221266
38.38923643 1.693301442 112.8733554
37.91636465 -1.54585675 117.1049946
38.12390898 -1.760523601 133.520351
37.65180395 -1.397680734 137.3701576
37.42163084 -0.6650698257 135.1533588
39.60336111 0.4972342912 125.2114509
38.68946073 0.5443802945 132.0256844
39.53693769 5.037028123 143.1820567
39.30889128 -6.34109512 142.5674644
39.69425199 -10.48376835 145.5550163
39.05042265 -36.92410445 161.1093833
37.92497442 -46.28546603 167.5300389
37.72471617 -32.49260355 159.5369209
38.03199003 -18.98945197 148.5211043
37.40517805 -13.17222026 146.3669563
37.32083891 -5.924515309 143.0178226
39.69427679 9.775265943 146.3337188
39.68591307 8.814643953 145.1345243
38.74848364 39.6253524 163.4968695
41.4215164 1.289796908 141.0742833
37.60807226 -31.96478191 157.9419158
38.39707754 0.4579820475 142.8603047
37.3232517 17.47513595 150.608996
37.71380804 -24.89954918 154.5039358
37.67119406 0.9254992779 119.9103739
37.60339353 -0.5140943151 104.9572746
37.50842092 -0.9846634761 123.7621467
37.84666632 1.091744635 117.7488017
37.52883528 -6.576414342 142.3172773
37.7934532 -0.6562871971 93.74301909
38.52733991 -0.1539313776 81.92450329
38.93229673 -1.524340197 118.5007576
39.11914251 -1.304554007 115.0742701
39.46343611 -0.7178937051 116.5615015
39.17506407 -5.144883817 143.3306221
39.44061087 -18.35155334 150.3830401
38.79484556 -1.412530231 95.36918525
39.75086592 -15.73452136 147.4819217
39.31518553 -32.34972824 157.573552
39.07132337 -28.00119011 154.2877565
38.98034475 -43.75296194 164.4914936
39.1415634 -23.13100669 153.5953173
38.4540653 -44.14705067 163.6672393
38.02204893 -29.14218927 157.2411064
37.59606359 -0.8942022722 112.0682013
37.76150701 -5.236667126 143.5195944
37.17985533 -11.6046057 145.855889
37.53615949 -21.56171814 152.3040792
37.56521795 -1.288709926 127.4204234
37.86896322 -3.898847967 140.5396733
37.33398054 -1.737369083 136.9946126
39.5881481 -7.184553546 143.0532835
42.72589681 -2.506970133 140.2334234
39.64456556 -4.397223822 141.991539
39.40376089 0.5617811105 128.2039873
38.94460295 13.6345183 150.6799947
38.61243818 50.9842681 169.2043948
37.98273085 44.37284053 165.3978194
38.43904684 24.44793954 156.7083511
37.34659574 17.19605507 151.1491716
39.84766004 2.009724318 139.6586617
39.04566381 6.509528431 145.4568745
39.29491423 -34.13121946 158.8994535
39.68422888 -0.9732694684 122.8184141
38.06996534 -2.294486285 81.47413014
38.15003584 40.99394461 164.9111952
37.24109457 15.31004758 150.6395506
36.63331411 -0.5037815395 137.4330229
37.4428005 -1.122833707 112.4925169
37.79541586 -5.16518695 141.2271513
38.0111656 -22.36549329 150.0552458
38.50843237 -40.69746159 163.8869719
37.3331394 -7.397304091 143.8629698
38.26142118 -20.00385053 147.8736204
38.35308645 -29.40704869 153.9382261
38.12839697 -51.71370842 169.9384779
38.48673246 -29.94028807 154.0966886
42.51175497 -2.179596843 141.7765898
39.53940962 6.059329454 143.7194914
43.08160398 0.4635713744 140.3156523
39.48399351 -10.53641657 144.5401243
39.41546438 -9.2276922 145.4757322
38.79084204 19.76950118 151.0335478
39.68780897 13.31193677 148.7385191
38.89799116 28.34543274 158.5659422
38.52467535 30.4540467 157.2087187
38.81478117 39.30291977 164.1447996
38.26090238 47.91964572 168.7264036
38.16937635 35.41712426 162.3921446
37.65967749 -33.0103565 158.5680938
38.24701116 30.99967807 160.3708815
37.86449049 19.41365474 151.0424131
38.46267889 25.5775304 154.3239607
37.85500143 14.66545529 151.3693632
36.01763723 -1.780645932 138.4025053
37.24217031 7.505074978 145.2862791
38.10618971 -7.431956829 144.8695005
38.74962805 2.750884242 143.73916
39.67326544 -6.402595108 143.1751951
39.30666731 -6.213499155 142.2125029
39.37936972 0.002347895113 137.185388
38.84233854 0.04915683166 107.1676268
38.77799795 -2.354074552 76.52280565
38.24633215 -0.7202549264 93.08495465
37.46840856 -1.003220932 110.3578581
37.87738798 0.622412962 120.9262022
38.91049383 -2.680863086 137.4923338
39.5817127 -1.583530123 130.7497801
39.24788092 0.3774756328 110.0043845
39.26861379 25.88664095 154.4100814
38.07579801 19.27218608 153.5045926
38.12835691 -40.63002934 162.2409544
37.45887373 -5.879433837 143.595942
37.9495487 -4.100920943 142.9524789
37.41658018 12.30313919 146.9271732
38.22783087 1.321976675 127.5989906
37.85266874 0.9993984989 117.1389439
37.39775656 -0.6374960416 121.7039563
38.41978834 1.703894863 109.8925058
37.44236944 -1.01465247 125.9966757
38.14812467 0.1704440014 94.90997085
39.05064962 -0.9030449442 89.08679784
39.19507978 0.7364737623 115.1255319
39.55624006 -0.6039715577 122.5629433
39.4311199 0.6362171774 119.7677178
39.38137625 3.4290248 141.5018137
39.69265936 -9.083953116 144.7191776
39.54365347 -0.6623845694 121.1657046
38.89593122 -1.575007974 118.9574744
38.9580612 -15.90271152 145.888012
39.06201742 -24.48951754 154.4677971
38.71651266 -40.33207873 161.6186572
37.92370985 -1.574776165 132.633678
38.02617262 -47.11665442 167.3454118
38.20186613 -51.82196038 170.1928726
38.06169317 -24.93482769 151.7172159
37.22797773 -10.64601803 145.5947364
37.46905516 -26.6335084 154.3990412
37.33116148 -4.770851866 142.5098365
37.39136122 -16.50899812 147.5245266
37.9145088 1.584213385 124.7369156
37.38237951 -6.458837512 142.5733144
38.82928274 -1.651945149 124.6399278
39.5555744 -1.075161605 136.4459326
43.02928923 -2.307942302 140.2040656
43.96716307 -0.6698636813 139.526376
39.34432791 8.282105242 146.2021414
39.21932409 31.41937179 157.6342086
38.29178999 48.78648282 168.1261523
38.12235639 32.05389336 159.7392256
37.41347692 18.69820927 151.9806832
37.26222608 12.73862566 147.7226014
36.67894361 1.742716298 141.2652371
38.90357588 1.580881208 126.0648307
39.14793585 12.40433922 146.9857267
39.06399916 -1.726892429 89.63356915
37.35134504 -4.94391925 142.0297636
37.81718634 13.46913374 150.6361021
37.31872938 0.4985984065 137.5019163
37.97469709 0.3551044055 114.3480772
36.40994451 0.3478692819 137.7842192
38.28167341 10.13845864 149.6389708
37.71058653 -23.81377754 153.8418821
37.65334699 -34.8710839 159.3394865
37.53956793 -16.81796135 149.5627226
37.63924406 -25.72176326 154.6228727
38.36146925 -31.15174445 155.0738462
39.09600065 -42.23544847 163.7922453
38.59758947 -22.34164007 149.2618957
38.6374111 -18.1000134 146.5179075
39.43240736 -6.354714527 143.7286009
39.70300291 -15.68447081 147.7801909
39.50068663 16.5769924 151.6422056
39.01216886 10.9084181 149.6349119
39.72587774 11.1428503 147.5911345
39.41736029 25.97310482 155.7438139
39.16220472 28.89223708 158.3769621
38.67001913 40.75129163 165.2724166
38.88305853 50.35178598 169.2872099
37.76319883 32.34607162 158.970735
37.54806135 27.58812557 157.0379499
37.47950743 19.15535585 151.6391539
38.23474119 25.5676006 157.672212
37.47590254 17.01098094 150.3292784
37.49492262 16.19589076 151.5425962
37.30969808 6.886993798 145.3003477
37.29678343 14.94918472 149.6079496
37.45132826 2.395272098 141.6531919
38.65891264 -3.428607293 142.6194395
39.6117687 -12.74896113 145.7166227
39.60566328 -8.3223478 144.6186613
38.95540617 7.62031022 146.7751554
39.62276266 -1.213681965 124.1400389
38.63994215 -2.487647538 88.94494005
38.14483068 -1.372464377 87.58968495
38.25406645 -2.408312224 107.4687743
37.35021589 -0.7672787242 115.9171691
37.87428091 -2.206708034 128.4052062
37.3024597 -0.8612532166 131.369821
38.90714453 15.30699952 152.1768736
39.62468908 -8.893136369 145.4726389
38.63947866 -52.27174401 170.6899133
38.13009642 1.19034301 110.0333339
37.28448103 -0.5825504234 123.0440287
37.73841665 -3.807334866 140.2609063
37.46010778 -26.36478302 154.9888438
37.39728163 -4.955083991 143.3186007
37.61232756 16.66580036 152.0933039
37.92348287 28.97530538 158.7958126
37.26693914 12.2789007 148.269629
37.88924024 19.98498284 151.4973107
38.30234144 21.6062399 155.9759272
38.12504957 54.32836281 171.7232598
39.35857199 27.01567596 157.0227133
38.69847677 25.09106268 154.2402261
39.51097868 20.15739441 152.6939922
39.44958303 19.47986862 153.1318113
42.99563215 -2.333445422 140.0307071
39.58123587 -3.772082031 141.1261346
43.82232187 -1.283484594 139.787647
39.70461843 -0.8280586351 129.0441193
38.24581526 -4.9012246 141.3719099
39.43547819 -0.9209249084 117.8776857
39.10166738 -0.6372462791 92.79849005
38.90721891 0.7881773812 109.4336254
38.42065618 0.06022350706 86.17596134
38.08858297 -1.429733017 92.83095295
38.34111021 0.5743901201 96.63956785
38.1521282 -1.585070552 101.4601854
37.68391989 6.200172434 143.5447042
37.31282995 -0.4999155492 119.9966656
37.48082159 6.968430846 145.7928472
37.52924345 0.3628389965 128.7892487
38.11664961 2.809924139 141.3007651
38.69581793 8.44342984 144.4574226
38.80520437 16.62072991 149.3195914
43.5688772 -0.407049218 141.525099
38.77305601 18.24299318 154.0649806
38.67306517 -15.06607278 145.6130138
38.59445951 -45.48846401 165.9052075
37.90697859 -39.85454302 163.0581593
37.66727445 -24.87662206 153.387795
37.31390951 -15.00563876 147.3800422
37.93327711 -8.640330043 146.1764731
39.45120619 -9.224312104 144.0955589
38.93901823 8.712515307 147.9473205
38.54582594 0.9507321726 111.5804687
37.67670439 -1.624855523 99.32781364
37.90192221 36.91977161 162.4098907
37.52946279 21.74004216 153.1284499
38.11543844 0.08334188185 130.0519347
37.40679167 -0.8091279563 113.50419
37.89442823 -8.775485571 143.1659484
37.47073171 -19.57436137 149.3672271
38.00494764 -36.1727348 161.0134978
37.58185575 -19.95665697 149.3629699
37.31721113 -17.38147882 148.4018645
37.91746519 -41.5172859 162.9601455
38.12942312 -56.28093489 172.3426528
38.9132385 17.5146851 153.1851058
39.60018156 -9.012978637 144.0972838
39.33089064 -1.869172665 135.1126647
38.87598799 8.952913682 148.2325683
41.93700788 -2.649472178 141.6501861
41.31606672 1.059696355 141.2600188
39.00043295 15.0299782 151.8147216
40.08165548 1.334592533 141.0856414
39.07319639 -10.19298224 146.3841338
39.04813383 40.28765336 163.5046248
39.0340595 44.57765438 166.2972884
37.84696768 40.49150315 164.2757812
38.29210279 39.8721184 164.882051
37.91963194 46.33597417 167.1397796
37.5674114 24.1356377 154.4483733
37.33409689 16.46904031 150.4670653
35.81220625 -2.095581208 141.6569762
37.95452497 -10.04070625 146.3411803
37.8169956 13.15207237 147.4059691
37.38563345 7.999106821 146.2785735
38.14394949 -19.47254329 151.7500548
39.52648352 -12.63274912 147.0996032
41.90806959 -0.4889451968 142.2884002
39.67709349 10.07103874 147.5134521
39.54580305 -5.747789458 142.0217223
39.10191343 -0.2248520194 110.5396972
38.08461759 -2.157958333 78.64327379
37.73282812 -1.786168866 97.07824095
38.40774725 1.311128093 116.5612884
37.53256986 -1.731020365 123.1200805
37.88403509 -3.586452571 138.3771758
39.34666059 -2.728262015 137.7166991
39.00800131 21.59405248 152.4477835
38.96735762 -34.90069504 161.3699211
37.33075331 -0.9624592216 128.742422
37.53139875 -0.2123511757 106.8375305
37.5261421 -1.425074316 127.3047964
36.4207382 -2.487175207 142.5421187
40.44719122 1.354274492 141.7087051
37.90220068 8.270641986 147.2836336
37.58605001 22.61024562 153.5115619
37.24577329 12.8708827 149.0421641
36.43290708 -2.937667042 141.5327179
37.68289183 32.25806393 159.8345462
37.45895765 8.205339827 146.5807138
38.57679937 52.04103718 171.137335
39.50006864 0.03168739263 130.8168125
39.23831175 12.89488907 147.5454753
38.94740675 21.06401473 155.047294
43.52049158 0.03280981958 141.2779546
41.45489691 -2.273816076 138.5200659
43.47209928 0.5532033295 140.2878536
39.11762808 -1.473563254 119.3302473
40.72476576 -1.43498523 137.8610862
39.35985372 0.2240894274 112.173256
39.06999204 -1.227913188 97.28026195
38.68918608 -1.406113757 78.86981799
38.07847975 -1.320198785 83.29008089
37.86090277 -0.4843156585 93.10316845
38.19924925 0.9573365679 106.5030305
37.69770048 -1.018401952 103.9072448
36.41374967 0.549380725 138.2191294
36.45773313 -0.8471242416 138.3952215
38.18537519 -1.721508867 118.0037593
37.58790968 10.27006705 145.9519396
38.43199156 0.6332568446 130.2799953
38.88150595 12.46966081 146.8994736
38.9282665 1.78356398 124.7928021
39.89718626 -0.09884743035 137.7375395
39.5672283 -0.2736216066 136.7082594
42.08367155 -2.561068363 141.2628868
39.05977629 -30.52216794 158.7401293
38.30762861 -47.85263464 167.6207382
38.37197302 -31.99755477 156.6805035
38.22741888 -22.15308108 150.2451819
37.21313284 -13.75072017 147.4723261
37.3291683 -6.816421042 144.2367297
38.89992521 44.51455566 166.7180144
39.27466009 0.7727858047 128.5496678
38.94433782 45.03012639 165.0203837
38.22174833 -40.00359835 161.2191767
38.01022909 -19.1942227 148.0961264
38.06257246 8.005304183 146.3852799
38.07298467 22.24903294 154.940248
43.10700987 0.7737782106 139.3645383
37.3371372 0.2460175968 120.6038113
37.89914511 -1.506477618 111.2793127
37.39165113 -0.8724668569 135.8815982
38.04821394 1.375728162 115.907105
38.04612539 1.201577726 113.2110312
37.97241209 -1.060800594 85.97423565
39.11577032 -13.56822313 145.0453655
39.16123388 -0.4060195122 97.18739634
39.62540052 -0.3343588562 122.4860974
39.30896376 0.9879222154 125.2403646
39.11274908 -33.50058582 159.4656384
39.58134268 3.500608786 142.9827156
39.62655447 -16.97295564 149.1568296
39.41893957 -17.06633166 149.721058
39.5354328 -0.23719219 142.6980488
39.40275953 -20.53640111 151.7100628
38.75300405 -52.09026013 170.3393748
39.48060987 -22.55045023 152.543301
38.05561445 -50.10502887 169.0695242
38.38409422 -35.26117049 157.9004059
37.25692175 -16.36040577 148.3967653
37.38475225 -17.11735504 147.9418183
38.02236555 -22.00878263 149.9024074
37.91495512 -10.00648419 146.4234329
37.60495375 -14.6618448 148.6073594
36.47278974 -3.087614579 139.5671932
38.03819464 -12.9062224 144.6380044
38.27275465 -9.932210734 143.6952695
40.82199476 -3.02996604 140.7958342
39.34889791 -1.095123202 118.9093403
43.2390003 -0.9832988835 141.3517021
38.66289137 17.57671625 153.1026401
38.80932806 38.50855355 162.8404322
38.30130957 45.82158429 166.7211326
37.88177488 30.87410539 158.6499881
37.4573879 14.22554995 149.8702568
37.59028242 9.114698544 146.9360425
37.49111555 6.52313444 144.2895398
39.3614578 -0.002049152222 108.3676582
39.00573347 7.236940051 145.8045809
38.53065679 53.69459987 170.7276599
38.24049375 -1.369488021 84.63894855
37.53626821 -29.48542509 156.1132879
38.32990644 15.24040065 152.0110587
37.58359335 20.75723247 151.5887129
38.12065695 1.975418127 138.4339176
38.12424467 1.839465532 120.8107212
37.6629524 -0.6292884308 102.2298713
37.23127745 -0.4448470166 127.0168394
38.22390364 -1.659076413 119.8899354
38.24483488 0.5121409657 96.27637135
38.10580252 -1.173947339 79.40357956
39.06103132 -0.731594035 89.29456656
39.04058836 -1.252597981 105.7108879
38.58629034 1.90646871 115.6239895
39.59293363 -0.02699397398 118.5289975
43.36689947 -1.739847311 140.7276191
39.67217634 -16.27874842 147.5979365
38.5312557 -17.9590224 146.3605512
39.67358778 0.1947863543 125.0200153
39.00851248 -19.41696213 151.7028545
38.69588659 -44.32480191 165.9970865
38.96762655 -46.16074031 166.6978685
38.28668974 -46.8666106 165.8452917
37.63933561 -34.3400709 158.8862221
38.00955961 -48.77839407 167.7420776
37.61352156 -33.27321363 158.6861067
37.53960417 -25.86893556 154.5472509
35.6561508 1.073250306 140.3630037
36.57196615 0.999573772 141.2484582
37.83411978 -1.530615054 126.5075216
37.64526937 -11.35792429 146.9669089
38.70462034 -1.682469201 130.6015955
38.30707167 -5.76973862 141.4076688
41.95545767 -1.712229929 137.8954215
39.44411276 0.42593985 117.1943527
39.26867674 5.426022392 142.4683735
39.39648626 17.7636375 151.7517072
38.6662998 54.45619866 170.7227105
37.83618162 41.59887386 163.6290301
37.7225704 25.32206058 153.9509365
38.06150434 15.23026654 151.5986493
37.41530226 6.8920627 144.9864902
39.35052107 5.407823327 144.4017812
39.57714842 -8.869403929 144.6459796
39.61533544 -0.8637146412 116.8053882
38.42712782 0.3837842754 103.4050281
37.98331068 35.2089475 161.6862018
37.34695051 0.9432023899 137.9439075
38.85640524 3.942461868 141.8477313
39.16126821 -2.144215472 128.5380237
38.41440389 -5.345640324 141.0684192
37.45563505 -19.05090392 150.5175462
37.97615049 -38.0578257 162.0781543
37.91825674 -24.82651395 151.8857715
37.94754408 -11.18612252 144.3280933
37.681406 -29.92193469 155.7713535
39.00806616 -47.15933094 166.8295886
39.08355902 -25.97946414 155.1539142
39.27231405 -16.93280856 147.1464679
38.56082342 -4.155778282 139.746779
39.57969282 9.003971472 146.9046771
39.20149992 -15.83090653 149.3807208
39.57599066 17.60344635 151.2690416
39.54104803 20.54260193 152.9958713
39.30592535 21.08692303 154.2080219
41.66708753 0.2020752269 138.2722308
38.67539595 42.88974512 166.2960955
39.16569136 30.04852048 157.5685184
38.41725157 52.68209972 171.5140674
37.91636465 38.91052755 162.5742709
37.80187414 13.59324777 147.6710343
37.56514356 24.46002899 155.8027484
38.00006101 -4.123284035 139.6152484
37.3023834 17.06545768 151.498717
37.56960676 3.483377817 141.9783618
37.66705129 3.246837989 143.6213672
37.53928755 8.584761027 147.0830674
38.3962631 6.815727059 146.2391498
41.22437475 -0.5770692327 142.5456071
39.60007475 11.07003154 148.4827869
39.67887876 -7.699077292 143.8404834
38.98022459 0.01508411823 132.9773395
39.41630552 -1.092963172 108.0214221
38.16961286 -2.043031947 77.67689385
37.73413084 -1.718697352 96.80427426
37.85267828 0.2624530829 117.2612138
37.17357633 -0.3401574201 123.6394489
37.48284719 -0.4204814526 133.3686206
39.11991499 13.63235129 147.6916187
39.55878446 10.7267904 146.874716
38.87111853 -40.45265435 163.1370322
37.56735227 0.5741150718 116.9336872
38.47008512 1.312937393 105.1200422
38.37980841 -3.691554782 139.2452208
37.94172476 -23.13143152 151.6198988
38.38846777 -11.72043774 148.1760984
37.91489981 13.59171657 151.1699519
38.42030332 26.72961443 158.7204719
37.99693296 15.68365827 152.4155242
37.30120085 -0.6119265302 143.213998
37.93677328 28.64019724 158.6325122
38.40534208 52.36587003 171.4232534
38.87108229 34.50791236 159.9239886
39.28388021 30.73713931 159.0536764
41.97003172 -0.01738876929 142.41668
43.8865547 -1.221310098 140.0889345
39.7345104 1.900466576 141.2149127
41.81051061 -2.070864385 138.5302744
39.83535955 -1.062688938 137.422146
39.29105184 -1.375736682 124.8669004
38.60342214 22.52024253 152.6726221
39.44856832 0.3885538826 117.5639765
38.94908522 1.554069807 121.9845953
38.98963354 -1.264452191 92.51782656
38.45566938 0.1691025816 87.02657286
38.0285568 0.5323408897 105.9254345
38.23158834 0.9644954737 105.5252208
38.07367132 0.6301332882 105.9853188
37.89217756 -1.493128163 114.4798262
37.32658575 3.947654617 143.3793682
37.38677786 -0.1733259386 136.4262825
37.77654264 -1.602220518 127.0080663
37.24561689 -0.3655465123 129.6263361
36.65484426 1.895048549 139.658806
42.07785795 1.468714629 140.4029486
38.57451437 0.4825097313 137.0132423
39.72589491 -0.40539182 126.2372535
39.18458555 -12.15470247 145.2247414
39.12578199 -34.06446415 159.294323
37.99307058 -49.5485089 169.5789002
37.84570883 -32.79306143 160.0066498
37.51898191 -18.3341473 149.2152934
37.36017988 -13.08093633 147.8457379
37.73340605 -5.331012226 144.030597
39.27403066 0.6007568395 117.8486218
39.68844221 -0.9715613012 130.4072711
38.93818853 -1.340331198 91.39839045
38.17532728 -38.197619 160.2167269
38.45392607 25.23020317 154.1263949
38.82138632 0.0749786139 132.0825336
37.3982868 -0.9508355816 114.2727649
40.43691252 -3.438814154 138.9367664
38.31342504 -20.58562138 148.1511981
37.77703855 -33.14747095 158.9994341
37.6463661 -14.35095935 148.3711231
38.38775823 -20.70612575 148.0890338
37.83436773 -36.03444527 160.7192142
38.10520361 3.321895086 144.1032245
38.7814369 -44.8415704 164.6882845
39.33101652 -13.07256458 145.2644946
39.63829611 -14.92936756 147.825133
39.12347029 -16.60403304 146.6715228
38.91779516 14.81438203 151.9616382
39.70516012 -14.96951921 147.5591876
39.44435881 19.01952508 151.5069567
39.27738951 10.30787231 145.769942
39.41961477 23.38145774 154.1653888
43.52899454 -0.5600499882 141.271239
38.67546652 46.86580792 168.2199771
38.88571356 -8.577977659 145.5292041
38.2332115 40.82156889 163.3786914
37.76217077 36.44757607 162.1330477
37.5536556 -6.820564779 144.0721881
37.26981161 14.52100513 149.5940845
37.94730947 13.19230416 150.9144885
37.65917013 19.91526745 151.6331317
38.09624098 -28.09927805 153.625365
37.24080274 10.07468551 146.5564716
37.69756315 -4.942790011 143.1863696
39.63323591 -6.236173666 143.3106982
39.74160765 -12.27848395 146.145705
39.55529211 -14.91627071 148.1787097
42.2190933 -2.995651866 140.8972156
38.82391546 0.8251127274 116.1599262
38.9947357 -2.205161893 91.45323056
37.99043653 -2.252156641 94.24484125
37.48052214 -1.096528303 110.3651569
38.03730009 -2.300432133 118.0570819
37.77300642 -2.025635633 133.395705
39.3705406 -0.1125729312 130.5699908
39.38331602 25.42764541 155.5597254
39.46760939 -21.26650972 152.6316234
38.22989652 -54.77680073 172.3480011
37.90803526 -0.7715761756 89.28118066
37.48202131 -1.44899233 128.7974519
39.22708891 -10.39698215 144.7264471
37.40722845 -24.54278711 153.7185414
37.78635595 -1.477093641 143.2891842
37.54027937 -0.02564366522 109.6334611
38.00225637 47.94116553 168.0482435
37.60963247 6.993838178 146.0368607
37.25182531 13.79591774 149.6349973
38.02522467 12.99977782 151.1708069
37.74433897 32.02364337 159.9955898
39.21156309 34.85668169 160.8063037
38.88644216 1.095433958 113.0325456
38.71727178 1.93713675 121.3102876
38.90678976 20.0340247 154.5893127
39.64440725 -5.590169867 143.1866116
38.94103239 13.76800811 151.5091114
39.46001432 -1.127951403 124.3111527
39.43839071 0.0207947512 133.2451448
39.4705715 -0.673899132 112.9175863
38.73922346 -0.1894239098 89.16051535
38.53302954 -0.477253109 78.19632815
37.95771215 -1.287784301 93.01795656
38.03664778 -1.113712327 79.80773925
37.24879263 -0.04321445501 122.1437992
37.64561079 -0.4482798834 102.3423823
37.41262625 -0.08200702471 112.6822603
37.43785475 8.308267173 145.0315971
38.22772405 2.124771082 123.9033463
37.58124922 -1.199377712 121.3220517
37.82025907 1.308376377 124.8809108
37.59151838 10.25079327 145.9105858
37.71214674 6.863869012 143.9340923
39.33013342 0.5958341778 128.5246507
39.40496443 -1.360048749 136.8501883
43.8409786 -0.1965219113 139.9252293
38.66022108 -31.15045124 156.3121224
38.85679434 -51.1663933 170.4809572
38.34837149 -41.58293528 163.2841866
37.82984922 -24.16343732 155.0165247
37.36036108 -12.0180958 147.3729415
37.31671522 -8.096990096 144.8792176
39.36884687 -9.802478519 144.5696646
39.10503576 1.459896129 125.324356
38.48747251 24.08943363 156.6001304
37.25136946 -12.17028527 146.4105806
37.65961836 -34.88816059 159.2178963
36.32983778 -0.4632631617 141.8991707
37.61413 14.84772078 150.3413774
38.18478582 11.89519267 145.772933
37.25653646 -0.07718655171 127.6079381
38.32235525 1.549454932 112.3977819
37.97437666 -1.263152569 98.65168515
38.05381391 -32.15821822 156.5624648
37.3681526 -1.711161832 142.556383
37.85108183 0.8785294653 114.1343826
38.68782041 -0.8407897322 76.31403685
38.87590025 1.076401948 110.4991161
37.64606855 -2.045858019 137.1816872
39.64422415 0.36253109 124.6822929
39.61658857 -4.334165949 141.6596486
39.34325216 -21.19393951 152.1986692
39.13560865 -18.98686008 151.2682905
39.58128927 -21.6850408 151.4899706
38.86978529 -17.62019139 146.7699253
40.89455221 -3.253004594 140.1089522
38.87735937 -1.725804358 128.347095
39.45741461 -26.72362319 154.4398143
37.99420736 -50.45942385 169.081548
37.55519102 -30.47363727 156.6959088
37.94298742 -24.41406069 151.704122
37.38173673 -10.37865885 146.0385938
38.09673117 -1.66023007 133.730038
37.18042562 -11.21280585 145.6907152
37.22201918 -12.51601237 146.5524883
37.57521627 -10.46581068 144.3929144
37.44566725 -12.21649876 145.2705931
36.62284086 -2.503360533 137.8758992
39.01462934 -1.24578455 101.1656091
38.5710182 -1.703089784 121.4299446
38.81423757 -16.98011288 146.2738866
39.57851408 0.5838748859 142.398188
39.34676741 24.40610638 153.7876905
38.44302175 47.99744886 168.0413379
38.00569914 33.49367808 160.130715
37.52677343 22.46680929 152.7861474
37.26597784 9.341915028 146.3149381
37.6391506 3.43180491 143.3371935
38.88593862 -12.1367004 144.4033743
39.62380407 0.2241595074 126.8727431
38.58262632 -35.69319143 159.2051876
37.95366667 0.9163374234 112.8750663
37.58205793 -0.2538792907 104.9528515
38.10784529 -1.850603705 131.7184178
37.64333532 -20.63776581 150.5563333
40.44004629 -2.411638343 142.3032873
37.86617468 13.82798141 151.1903806
37.92572019 26.52230169 155.1825933
38.36375616 34.34451398 162.4187758
37.29044149 14.38187532 149.5092806
38.02111051 18.56128962 153.9015281
38.17146299 27.02628662 158.4059539
38.85859487 46.73031721 167.9227027
39.24975584 23.22413071 155.494957
39.62963102 6.301298676 144.7455807
39.9385433 0.8885539348 142.4866732
39.68013571 11.4161215 147.508644
39.21551321 35.11038302 161.0196379
40.60237882 -1.726709996 137.9503114
39.49848173 -1.125579707 125.9742266
39.08735082 -1.566795574 123.7050441
38.9581394 -1.311444751 92.38322546
38.73981092 -1.488218433 90.23939806
39.17999647 0.174173447 107.3417677
38.3458576 -0.4924333791 79.49265155
37.62998579 -0.6695705641 102.177113
37.64418218 -1.234071322 116.0465367
37.95830152 0.5469895345 109.1980447
37.77461431 -1.314458984 112.8525531
37.45812033 -0.926405057 121.4846733
40.62347219 -2.965175166 139.0148826
35.43236349 -0.3108508291 138.5922569
37.70238684 0.660055041 128.7753801
38.78199957 2.019392818 123.3481452
38.9945297 0.5171112507 130.0503774
39.54388235 -0.2175345711 137.2146702
39.1193466 21.49580116 154.8736558
39.21230123 -16.38509449 147.5648459
39.03010748 -44.68999761 166.4529202
37.97113417 -46.60737929 168.0583093
38.29297636 -28.61006151 154.5377375
38.10442541 -19.10809729 148.3953721
37.2060108 -9.711759186 145.5303841
37.35946653 -8.496729348 144.8659258
39.0918617 0.07558078532 103.2671
39.7176132 11.22205762 147.6466312
38.87569425 50.42858107 168.4252505
37.82096098 -1.353842007 114.3155385
37.56524656 -30.70024055 156.7670012
40.23034857 -0.718560526 142.5872691
37.50570104 20.32356892 152.9351466
37.33197782 -13.43848728 146.0582511
37.82288168 1.158724358 119.3319015
38.12096594 -1.490885443 106.0502039
37.29979322 0.3570673925 124.8779747
37.9497814 1.552506168 121.9063822
37.58776472 -1.235888247 125.5392762
38.03741644 -0.9904487997 80.05611816
38.98871038 -1.153351984 92.10386915
39.35734365 -0.9408756013 115.6231785
39.61918829 0.3577743006 121.9508163
38.67992018 2.148473911 124.6164761
39.50071714 -13.2388205 147.5173497
41.92960928 -2.794226485 140.6951232
38.86180685 -20.48776178 152.4398277
39.15294454 -0.8820559564 142.8582447
39.24559782 -0.8663113259 102.9421192
39.04793547 -35.60779607 160.7133191
38.61211012 -31.66102755 158.8554039
38.6336994 -55.43552863 171.5275473
37.7469425 -32.84215606 158.880045
38.12919424 -44.04180051 164.3849199
37.65089224 -34.94000087 159.7655718
38.4119396 -1.656710949 115.6998183
36.16045378 -2.224586781 141.0866522
37.81760786 -16.54903627 149.955432
37.49153326 -16.12162773 149.1276143
37.69747541 -15.81810592 146.5904246
38.18787001 -3.054689855 137.9610785
38.52386282 -11.09598745 144.0678782
39.44882772 -5.472628857 142.2754756
39.57200048 -3.833560719 141.2482021
39.71080206 -0.02209885203 126.6808583
39.57609938 20.6931153 152.6798086
38.78043936 51.77823824 169.20104
37.83980368 39.33846644 162.0202756
37.4853134 25.94807662 155.4746773
37.2933254 13.36203589 147.9828351
37.25173948 7.837244728 144.6631381
39.75620268 7.525748443 145.3624557
39.56918524 -15.03562126 146.5534351
39.10206602 -2.091655586 115.0317523
37.55337141 -1.650429434 107.30963
37.86078642 41.90737682 164.7571093
37.9990196 22.31279706 152.6241594
37.21040914 -0.4623786041 122.8088366
37.70486067 -1.870121551 108.1880939
36.9582424 -2.382781795 137.5851427
38.3914871 -21.74944538 148.8307023
38.3588619 37.93382029 163.9016329
37.38832853 -20.68380032 150.2626788
37.46403501 -16.11272869 148.9667499
38.07465361 -30.08085871 155.0406099
38.33529089 -43.43238685 163.3146806
39.29779432 -29.47621393 156.6817843
38.3175659 6.390540976 145.9532001
38.47688482 8.912368212 148.526488
39.2768955 21.05650654 152.3014514
43.83936308 -1.294988069 140.8747393
40.15070532 1.55188656 140.1256547
38.61561392 15.16707567 148.2734057
38.73803518 27.01105444 155.2787235
39.0782604 30.07822943 159.0962588
39.51811598 -1.204701399 142.8836352
38.96811674 15.93790202 152.3310838
37.89509771 -9.314764597 145.9191119
38.24254988 53.6757331 171.5657716
37.59782598 21.1685577 152.5398089
37.68067167 28.61461583 156.9079959
37.63415907 15.93402615 149.2895343
37.62340162 -15.98868608 149.2494188
37.37368009 18.45380916 151.5500171
37.70759962 9.19566776 147.7835221
37.97021482 11.49725584 150.1616502
38.81972311 8.881638057 148.2507615
39.5524082 5.903216883 144.8609148
39.51122091 -17.30760426 149.4569231
39.26333425 -14.49227755 145.7233568
38.78089712 8.912210948 144.6395097
39.35471723 -1.785729563 118.9811083
38.14786718 -2.414603089 78.19109975
37.68938825 -1.524540114 99.33602765
37.39196012 -0.5850642055 114.2919908
37.7812023 0.5250337717 122.3818346
38.09350584 -2.198077172 133.6418445
42.19995878 -0.1756209629 138.2843461
39.01876829 4.071904603 142.5417879
38.97949217 -33.42184237 160.5224354
38.16994856 8.247768364 147.4646901
38.09299467 -0.2306844257 93.88510886
38.08218191 -1.82608046 125.5470033
37.98736189 -22.13390427 150.8613155
38.41379164 2.502929846 143.7314399
38.28406904 9.449519721 148.8891715
37.49426077 24.7194682 155.3215681
38.32882688 37.89331801 164.1286183
38.30462072 0.6770343909 129.7755614
37.6096401 24.82447731 154.9489599
37.96438024 34.8272307 161.8400177
38.84754179 52.7262057 170.8087182
37.41718862 1.654159476 138.8341111
41.17753599 -0.8613799476 142.827136
39.51819418 21.0758129 153.4684424
43.58816812 -0.2179518281 139.3457306
39.43845747 0.03323439409 131.6954707
39.08731459 21.3653995 154.8582809
39.61235998 -0.3272531243 120.2245608
39.69652365 13.34300158 149.1782597
38.91771124 -1.392230836 95.70200206
39.05809591 14.35216239 148.1672053
38.94446943 -1.121225678 83.62409456
38.27362821 -1.457182295 81.40934229
38.28615759 -1.532867471 89.17435466
38.11226652 -1.615263607 104.5090268
37.90770147 21.1036734 152.1350302
37.01979826 1.370202274 138.6108984
37.46544836 -1.254922677 136.6100996
37.41109083 -0.8214533493 122.1542865
37.96760748 0.4951039297 130.6439202
38.45657156 2.289539916 125.3050751
38.28459738 0.5250749324 133.4737551
39.78370664 1.667023594 139.1370624
39.69804762 11.55183807 147.6870185
38.96187971 1.44455437 121.5640514
39.50499914 -3.255621266 142.3982976
38.76022909 -38.04578102 161.2184339
38.18837736 -48.35536947 168.3112879
38.35911177 -32.16040932 156.8346515
37.7552471 -18.10764979 148.680513
37.28950117 -12.84899677 147.595835
37.3781719 -3.87526215 142.6252495
39.54683683 -0.8371557149 125.1674946
39.600893 -6.669992524 143.7176397
39.02756689 38.58291347 162.4549217
37.48774336 0.03045116035 135.55314
37.57879637 -31.31109849 157.13566
38.9973068 -0.3485835011 142.9352945
37.76014326 19.02727369 152.7041218
38.91203688 2.752634873 140.7121115
37.74001501 1.092058589 121.081173
37.52752111 -0.7836383545 110.5145608
37.29380606 -5.153559352 142.422216
37.70932768 1.183429813 123.422303
37.31528471 0.133806367 127.4675683
37.98970793 -0.3046345091 91.91016717
38.53594396 -38.76459192 160.2424799
39.20753286 -0.9716573702 104.1482181
38.86771009 1.551765658 126.339472
39.51495169 -1.933327665 137.4067753
38.94017599 -1.532396832 117.2464613
41.23771856 -3.171840988 139.5381799
38.58523748 -17.44441532 146.125459
39.42282675 -6.099863173 143.7309401
39.02407644 -0.967794494 88.92700415
38.66702841 -33.08696524 159.6507296
38.72411535 -49.73894314 167.9803656
38.80800054 -53.95453207 170.9792302
38.12943075 -45.66702085 165.4337995
37.93531034 -38.75463934 161.2347631
37.5923786 -24.150503 153.7699031
37.39715002 -21.71875615 151.7586319
38.08081625 -23.25351165 150.5771236
38.19688604 -6.347193159 144.38467
37.88915823 -15.99167127 146.3136393
37.9634075 -9.948273838 146.4516061
36.73275373 -3.241516825 140.8744078
39.39204214 -1.353975949 135.8673287
38.58091925 -1.723319618 131.0447703
40.2463722 -3.042796153 140.9289257
39.665884 -8.157779658 144.1518622
39.74486921 9.747989604 146.1056895
38.95610807 47.80235689 166.8642765
37.84132574 41.57993267 163.6825114
38.09835241 26.98767315 157.2882233
37.268589 14.44178015 148.7970338
37.26118849 7.146063254 144.5667037
37.56670187 6.28492208 144.8879866
38.92436025 31.18985132 159.8925724
39.68041609 -0.3620357065 119.9909916
38.33138655 -1.803994674 77.08629795
38.43009756 -33.78074117 159.7923832
37.70989607 24.44778962 154.2622242
38.69216154 0.1298189194 130.7406864
37.50318144 -1.452305105 109.3089541
39.27791403 -8.517066517 143.1972599
38.09141729 -22.92222074 150.2463779
38.30005644 -37.56756831 162.0813312
36.42327307 -3.277308904 141.4505405
37.76366613 -14.65843821 145.6822757
37.76518057 -35.42048499 159.2825336
38.0676174 -52.86567931 170.2022571
38.95696066 -22.61274384 153.433527
39.25131033 -30.40826465 156.0657291
39.36159895 -21.60395866 150.4602756
39.39490698 -16.15613515 149.2105045
39.15900228 8.449356507 147.3929538
39.51177976 15.28775354 149.4162845
39.56029699 13.87670377 150.1871738
38.93424223 16.26742122 152.5683307
38.48429678 34.10268538 159.3699512
39.68176077 5.676200327 144.120142
38.75142858 37.92891067 161.7080402
38.38544081 49.16977833 169.6733417
38.36195181 48.05006551 169.0993366
38.26438139 18.23543878 154.0975055
37.75838278 33.06344751 159.4082508
38.03103826 29.54052874 156.8727665
37.33340643 2.63781567 142.1320438
37.35415266 -0.9117815896 136.8851108
37.32946585 13.56498952 148.7126713
37.99462889 15.93802788 152.3955555
38.81991575 -7.458178524 144.8678379
38.98622892 -5.988849167 143.9970646
39.59564398 -18.75218821 149.1938877
42.49485967 -2.927496824 140.842493
42.83789823 0.4298754746 139.2880954
39.08067129 -2.122206245 108.1272068
38.48496054 -1.486257464 79.15773956
37.83616255 -2.03067827 96.29033846
37.68064878 -1.872259877 110.260828
37.67592047 0.4321954416 123.2513675
37.5336437 -1.811326044 131.8557071
39.34109114 -0.2394655127 132.829874
39.1870117 -4.580271897 141.0061876
39.03110121 18.60614216 152.8005166
37.57080076 7.150179662 145.4998815
38.35310362 -36.30336268 158.6815932
37.51160047 -20.81996162 150.2266389
37.50553701 -2.069468186 142.5244134
39.31594656 8.459028394 144.1741426
37.66570471 0.645603154 128.5111031
37.47280119 0.2139161029 115.6856562
37.91056249 1.131824221 115.9933759
38.13182638 1.453044359 114.5544379
37.5167732 -1.244644574 130.5377632
38.38378141 -0.1558990294 81.45113376
38.77021597 -1.289686671 82.04039996
38.76187513 1.08356565 107.8089414
41.25913046 -2.179882153 137.931751
40.87467001 -1.50232749 137.5392589
38.73199842 -31.24230144 155.6108296
39.39545248 -1.118869397 122.2786544
39.43832014 -14.97872939 148.6241441
39.43141554 -17.67630274 150.0197754
39.33913229 -12.48258051 147.4718606
38.93605039 -31.95864111 158.7984505
39.29166029 -22.65266011 151.1574508
37.54203794 -1.324412039 129.1408903
37.96467779 -1.226279119 96.88662946
38.32316587 -51.01012265 169.8195947
37.59573553 -32.46852436 157.7145074
37.79893301 -25.05052205 154.6954961
36.02852819 -0.9683200007 138.074963
37.60617063 -19.33146002 149.0205335
36.4227886 -3.178826864 139.632433
37.28772734 -0.8445344302 128.6180675
37.32176397 -16.06966575 147.3659963
38.76413343 -1.652436596 121.3461305
39.6627693 0.1410366591 122.4789099
39.64123152 -0.4419513759 136.751889
43.31047438 -1.375222497 141.1410364
42.24701879 -0.007969362477 141.8209803
39.28050802 33.6597064 159.5136607
38.17867658 51.42458828 169.1639961
37.84969137 36.63857029 160.3791415
37.3589916 20.23358172 152.3100168
37.49920462 13.45614312 147.4350848
37.48310278 5.650402759 144.3826055
39.70843122 -17.12985971 148.5715077
39.40290258 -3.558982746 141.9103031
38.81763647 -0.8512217609 95.12578766
38.11426542 37.4247526 163.3319034
38.22281835 21.08051427 155.4205494
37.48136328 0.0973924991 125.4716434
37.48266027 -0.3199275333 116.2121525
37.77047155 -4.413889713 140.8475742
37.38719557 -12.70145289 147.0586033
37.4419174 -24.60888535 153.3464451
37.53980444 -20.84952028 150.0434208
37.35743711 -3.721161939 141.7499637
38.12739752 -20.58660374 148.51684
38.37276075 -25.89698463 151.5714817
38.97782324 -47.764258 167.4035358
39.07764051 -38.58169428 161.1557789
38.51559828 17.72040504 154.1466465
39.25905416 33.02245841 159.919939
42.69494055 -2.695647506 139.13447
43.03181837 0.5505197391 140.213129
40.72677229 0.9572486272 138.4599399
38.73777578 12.97554527 151.3795109
39.01061437 22.60997142 155.4697819
38.91782377 33.83478683 161.2703113
39.07487295 36.0811438 160.9923725
38.91477583 48.96110668 168.7885074
38.06064031 42.02031461 165.4445209
38.13433836 29.4856886 159.3749332
37.60324858 30.21728452 158.1957035
38.00577352 25.08118571 156.8662662
37.92122076 25.77234396 154.7893696
37.74985311 2.096292814 140.6797275
39.2235317 -4.219155125 140.8036136
36.41948698 0.1611189803 138.1013889
38.37618826 10.35173072 150.0183658
37.7931423 -19.33118116 151.3611545
38.85581205 10.7604259 149.923212
39.4873905 -15.50790942 146.674097
38.90112493 -22.03612762 149.6619816
39.6159458 -1.598909644 129.3926487
38.80213926 -1.001266094 92.77279087
38.12903211 -1.772532842 82.32579986
38.07665823 -0.1562195707 105.3306522
37.56746481 -1.712802668 117.2862644
37.24577139 -0.3942742531 126.6573276
37.49378393 -1.753219668 131.6771641
39.74047659 8.521596304 146.1490268
39.88361929 -3.410997595 139.8236055
38.69959638 -50.47648236 169.638481
37.33566282 -0.3950648191 119.9586397
37.36725614 -0.8136501704 122.4540572
39.16857336 -5.445289364 141.9158316
37.59759519 -18.48413551 151.441293
39.05076597 0.3185853203 143.1381996
37.26960562 9.364726075 146.167964
37.74798582 31.11871056 158.3884286
39.21652792 -3.346114395 142.8694583
37.36212919 17.79277884 151.5525838
37.48973272 21.88121768 154.3506578
37.90296743 37.36809502 161.872943
38.82246588 33.46579916 161.4498753
38.8487129 0.5022973668 131.7590714
39.53041456 8.282789453 146.5678902
39.56296919 6.899274668 145.5065943
39.43885229 24.47198245 155.3527034
39.70039175 10.60792303 146.9956219
39.67716596 0.1121983008 120.8219254
41.46943472 -2.404633121 138.6464529
39.33751867 -1.476552089 131.0920102
38.85470007 -1.494741969 98.46866155
38.62015722 -1.42486873 76.73024955
38.52064894 -0.5512663571 76.67205366
37.55164144 -0.5763133139 106.6204161
38.31080625 0.1796455742 90.92296986
37.01191328 -0.1052898901 137.5318338
37.55442617 -1.210819412 122.6208761
